1255 1256 1258 1259 1259 1259 1259 1259 1259 1259 1259 1259 1259 1259 1259 1259 1258 1258 1258 1258 1258 1258 1258 1258 1258 1258 1258 1258 1258 1258 1259 1259 1261 1262 1262 1267 1270 1272 1275 1276 1278 1279 1279 1283 1281 1281 1281 1281 1279 1279 1278 1278 1276 1276 1275 1273 1273 1272 1270 1267 1267 1267 1267 1267 1268 1270 1270 1272 1273 1273 1275 1275 1275 1275 1275 1278 1281 1281 1283 1283 1284 1284 1287 1289 1287 1289 1289 1291 1291 1289 1289 1289 1289 1289 1287 1289 1291 1292 1294 1295 1297 1299 1302 1304 1307 1310 1315 1319 1320 1320 1320 1320 1320 1319 1315 1315 1310 1307 1304 1302 1299 1297 1294 1292 1291 1291 1291 1292 1294 1294 1294 1295 1295 1297 1297 1300 1302 1304 1307 1312 1317 1327 1334 1341 1346 1348 1350 1350 1350 1348 1346 1343 1337 1334 1332 1329 1327 1324 1322 1322 1322 1320 1320 1319 1317 1315 1314 1312 1312 1309 1309 1305 1302 1300 1299 1295 1292 1292 1291 1291 1291 1291 1294 1295 1299 1304 1307 1312 1314 1315 1317 1319 1319 1319 1319 1319 1319 1317 1315 1315 1314 1312 1312 1309 1309 1307 1307 1307 1305 1305 1307 1309 1309 1309 1310 1310 1310 1310 1310 1309 1307 1307 1307 1307 1307 1307 1310 1312 1314 1317 1317 1320 1322 1324 1324 1325 1327 1327 1329 1329 1330 1330 1332 1332 1332 1332 1334 1334 1336 1337 1337 1337 1339 1341 1341 1343 1341 1341 1337 1337 1336 1336 1337 1337 1339 1337 1339 1339 1341 1343 1343 1344 1344 1344 1344 1348 1350 1351 1351 1353 1355 1357 1359 1362 1362 1360 1362 1360 1360 1360 1359 1357 1351 1351 1350 1346 1343 1339 1337 1336 1336 1337 1337 1339 1341 1344 1344 1346 1346 1346 1344 1344 1343 1344 1344 1344 1343 1341 1341 1341 1341 1341 1341 1341 1343 1343 1346 1348 1348 1351 1351 1353 1351 1350 1350 1350 1350 1350 1350 1350 1350 1351 1351 1351 1351 1350 1348 1346 1346 1346 1344 1344 1348 1348 1350 1350 1351 1351 1353 1353 1353 1353 1353 1355 1355 1355 1355 1353 1355 1353 1353 1351 1351 1351 1353 1355 1357 1359 1359 1360 1362 1364 1368 1368 1369 1369 1369 1371 1371 1371 1369 1369 1369 1366 1366 1364 1362 1360 1360 1360 1360 1364 1366 1366 1366 1368 1368 1369 1369 1369 1368 1368 1368 0 0 0 0 0 0 0 0 0 0 0 0 0 0 0 0 856 857 858 856 855 853 848 844 841 0 831 826 0 0 0 0 0 0 0 0 0 0 0 0 0 0 0 0 0 0 0 0 0 0 0 0 0 563 564 564 564 564 0 0 0 0 0 0 0 0 0 0 0 0 0 0 0 0 463 463 463 463 463 462 462 462 462 461 461 460 459 458 457 456 454 453 452 450 449 0 0 0 442 441 441 440 440 439 439 438 437 437 436 436 435 435 434 434 433 433 433 432 431 0 430 430 0 0 0 0 0 0 0 0 0 412 411 410 410 409 409 408 407 407 406 405 404 404 403 402 400 399 397 396 394 393 391 389 387 385 384 381 379 0 376 374 373 373 373 372 372 372 373 373 373 374 0 375 377 378 378 379 380 381 381 381 381 381 382 381 381 382 381 381 381 381 381 381 381 381 381 381 381 381 380 380 379 379 378 378 378 378 377 377 378 378 378 379 380 380 381 381 382 382 384 385 386 387 388 389 389 390 390 391 391 392 393 393 393 393 393 393 393 393 392 391 0 0 0 384 0 0 378 377 376 376 376 376 375 375 375 375 375 375 375 375 375 0 0 0 0 0 0 0 0 0 0 661 658 657 655 653 651 647 0 641 638 634 631 629 627 625 623 623 622 622 622 622
1253 1256 1258 1259 1259 1259 1259 1259 1259 1259 1259 1259 1259 1259 1258 1258 1258 1258 1258 1258 1258 1258 1258 1258 1258 1258 1258 1258 1258 1258 1259 1261 1261 1262 1264 1267 1270 1272 1273 1275 1276 1278 1278 1279 1278 1278 1278 1278 1276 1276 1275 1275 1275 1273 1273 1272 1272 1268 1268 1267 1265 1265 1265 1265 1267 1267 1268 1270 1270 1272 1272 1273 1273 1275 1275 1276 1279 1281 1281 1283 1286 1286 1287 1289 1289 1289 1289 1291 1291 1291 1292 1291 1291 1292 1291 1292 1294 1295 1297 1302 1304 1305 1310 1312 1312 1317 1320 1322 1324 1324 1324 1324 1324 1322 1320 1317 1312 1309 1305 1304 1300 1297 1295 1292 1291 1291 1291 1292 1292 1292 1292 1292 1292 1294 1295 1297 1297 1300 1304 1309 1314 1320 1329 1336 1343 1344 1344 1344 1344 1344 1343 1337 1336 1330 1329 1325 1324 1322 1320 1320 1319 1319 1317 1315 1312 1310 1309 1309 1307 1305 1304 1304 1302 1300 1297 1295 1294 1291 1291 1291 1291 1292 1294 1295 1300 1305 1307 1310 1314 1317 1317 1319 1319 1319 1319 1319 1317 1317 1314 1314 1312 1312 1310 1310 1309 1309 1309 1307 1307 1307 1307 1309 1309 1309 1309 1310 1310 1310 1309 1307 1305 1307 1307 1305 1307 1307 1309 1310 1314 1315 1317 1319 1320 1322 1324 1324 1325 1325 1325 1327 1329 1329 1330 1332 1330 1332 1334 1334 1336 1337 1339 1339 1341 1341 1343 1343 1343 1341 1339 1339 1337 1337 1337 1339 1339 1339 1341 1341 1343 1343 1346 1346 1346 1348 1348 1348 1350 1351 1353 1353 1355 1355 1357 1359 1359 1359 1357 1357 1357 1355 1353 1350 1346 1344 1343 1341 1337 1334 1332 1332 1332 1334 1334 1336 1337 1339 1341 1343 1344 1344 1343 1343 1343 1343 1344 1343 1343 1341 1343 1343 1344 1346 1344 1344 1346 1348 1350 1351 1353 1353 1355 1355 1355 1353 1351 1351 1351 1351 1351 1350 1350 1351 1351 1351 1351 1350 1350 1348 1348 1346 1348 1348 1348 1351 1351 1351 1351 1351 1353 1353 1353 1353 1353 1353 1355 1353 1353 1353 1353 1351 1351 1350 1350 1351 1351 1353 1355 1357 1359 1360 1360 1362 1364 1366 1366 1366 1368 1368 1369 1369 1369 1366 1366 1364 1362 1360 1359 1355 1357 1357 1359 1360 1362 1362 1364 1364 1366 1368 1368 1368 1366 1366 1366 0 0 0 0 0 0 0 0 0 0 0 0 0 0 0 0 0 853 853 852 851 849 845 841 839 0 831 826 0 0 0 0 0 0 0 0 0 0 0 0 0 0 0 0 0 0 0 0 0 0 0 0 0 0 0 0 0 0 0 0 0 0 0 0 0 0 0 0 0 0 0 0 0 0 0 463 463 462 462 462 462 462 461 461 460 459 458 457 456 454 453 452 450 449 448 447 0 444 443 442 441 440 440 439 439 438 437 437 436 436 435 435 434 433 433 432 432 431 431 431 430 430 429 0 0 0 0 0 0 0 0 0 410 410 0 0 408 407 407 406 405 404 404 403 403 401 400 399 398 397 395 394 392 390 388 386 384 382 379 377 0 0 374 373 373 372 372 373 372 373 373 374 374 0 0 376 377 378 378 379 380 381 0 381 381 381 381 381 381 381 381 381 381 381 382 382 382 382 382 382 381 381 381 380 380 379 379 379 379 379 379 379 380 380 381 381 381 382 383 383 385 386 387 388 389 390 390 391 391 392 392 393 393 393 393 393 393 393 393 393 392 390 389 0 0 0 0 378 378 377 376 376 375 375 375 375 375 375 375 375 375 0 375 0 0 0 0 0 0 0 0 0 0 661 660 658 657 655 653 650 647 0 640 637 634 631 629 627 625 624 623 623 622 622
1251 1255 1256 1259 1259 1259 1261 1261 1261 1259 1259 1259 1259 1258 1258 1258 1256 1256 1256 1256 1256 1256 1256 1256 1256 1258 1258 1258 1258 1258 1259 1259 1261 1262 1262 1267 1268 1270 1272 1273 1273 1276 1275 1275 1275 1275 1275 1275 1275 1275 1275 1273 1273 1273 1272 1270 1270 1268 1267 1265 1265 1264 1264 1265 1265 1265 1267 1267 1268 1270 1270 1272 1272 1273 1273 1275 1279 1281 1283 1284 1284 1286 1286 1289 1291 1291 1289 1291 1292 1292 1294 1294 1295 1295 1295 1295 1297 1299 1302 1305 1309 1310 1314 1314 1315 1319 1322 1324 1325 1325 1324 1325 1324 1322 1320 1319 1314 1309 1305 1305 1300 1297 1295 1294 1291 1291 1291 1291 1291 1291 1289 1289 1289 1291 1292 1294 1292 1295 1299 1304 1309 1315 1322 1330 1336 1339 1337 1339 1339 1339 1337 1334 1330 1327 1325 1324 1322 1320 1319 1319 1317 1315 1314 1312 1309 1309 1305 1304 1302 1302 1302 1302 1300 1300 1297 1295 1294 1292 1292 1291 1292 1292 1295 1297 1302 1305 1307 1310 1314 1317 1317 1317 1319 1319 1317 1317 1315 1314 1314 1312 1312 1312 1310 1310 1309 1309 1309 1309 1307 1307 1307 1309 1309 1309 1309 1309 1309 1310 1309 1307 1305 1305 1307 1305 1305 1307 1307 1310 1312 1314 1315 1317 1319 1320 1324 1324 1324 1325 1325 1327 1327 1329 1330 1330 1330 1332 1332 1334 1336 1337 1341 1341 1341 1343 1343 1343 1343 1341 1341 1339 1339 1337 1337 1339 1339 1341 1341 1341 1343 1346 1348 1348 1348 1348 1350 1350 1351 1351 1351 1353 1353 1353 1353 1355 1353 1353 1351 1351 1351 1350 1348 1344 1341 1339 1337 1336 1332 1329 1327 1327 1329 1329 1330 1330 1332 1336 1337 1341 1343 1341 1341 1341 1341 1341 1343 1343 1343 1341 1344 1346 1348 1348 1348 1350 1350 1353 1355 1355 1357 1357 1359 1359 1357 1357 1355 1353 1353 1353 1351 1350 1350 1351 1351 1351 1350 1350 1350 1350 1350 1350 1348 1350 1351 1351 1353 1351 1351 1351 1351 1351 1351 1351 1351 1351 1353 1353 1353 1353 1353 1353 1353 1351 1351 1351 1353 1355 1355 1357 1359 1359 1360 1362 1364 1366 1366 1366 1368 1368 1368 1366 1364 1360 1360 1357 1357 1355 1353 1351 1351 1351 1353 1355 1355 1357 1359 1360 1360 1362 1364 1364 1364 1362 1364 1364 0 0 0 0 0 0 0 0 0 0 0 0 0 0 0 0 848 848 848 846 0 0 837 0 833 829 0 0 0 0 0 0 0 0 0 0 0 0 0 0 0 0 0 0 0 0 0 0 0 0 0 0 0 0 0 0 0 0 0 0 0 0 0 0 0 0 0 0 0 0 0 0 0 463 462 462 462 462 462 461 461 461 461 460 459 457 456 455 453 452 451 450 449 448 446 445 444 443 442 442 441 440 440 439 438 437 437 436 436 435 435 434 433 433 432 432 431 431 431 430 429 429 428 0 0 426 0 0 0 0 0 0 409 408 0 407 407 406 406 405 404 403 403 402 401 400 399 398 397 395 394 392 0 0 0 0 0 0 0 0 0 374 374 373 373 372 373 373 373 373 373 374 374 375 375 0 377 377 378 379 380 380 380 381 381 381 381 381 381 381 382 382 382 382 382 382 382 382 382 382 382 382 381 381 381 380 380 380 380 380 380 381 381 381 382 382 383 383 384 385 386 387 0 0 390 391 392 393 393 394 394 394 394 394 394 393 393 393 393 392 390 389 387 0 0 0 0 0 0 0 375 375 375 375 375 375 375 375 0 0 375 0 375 0 0 0 0 0 0 0 665 664 662 661 659 658 656 655 652 650 646 0 640 637 634 631 628 626 625 623 623 623 623
1248 1251 1256 1258 1259 1259 1261 1261 1261 1259 1259 1259 1258 1258 1256 1256 1256 1256 1256 1256 1256 1256 1256 1256 1258 1259 1259 1259 1259 1259 1261 1261 1262 1264 1264 1267 1267 1270 1270 1270 1272 1272 1273 1273 1272 1272 1272 1272 1272 1272 1272 1272 1272 1272 1270 1268 1268 1268 1265 1265 1264 1264 1264 1264 1264 1265 1265 1267 1267 1268 1268 1270 1272 1273 1273 1275 1278 1283 1284 1286 1287 1287 1287 1289 1291 1291 1291 1291 1291 1292 1294 1297 1299 1299 1300 1300 1302 1305 1309 1310 1314 1314 1315 1317 1317 1320 1320 1322 1322 1322 1322 1322 1320 1320 1319 1317 1314 1309 1305 1302 1300 1297 1295 1294 1292 1291 1291 1289 1289 1289 1287 1287 1287 1289 1287 1289 1289 1292 1295 1300 1304 1309 1317 1324 1329 1330 1330 1330 1330 1332 1330 1327 1324 1322 1320 1320 1319 1319 1317 1317 1315 1314 1310 1309 1307 1304 1302 1300 1300 1299 1300 1300 1300 1300 1297 1295 1295 1295 1294 1292 1294 1294 1297 1300 1305 1307 1310 1312 1314 1317 1317 1317 1317 1317 1315 1315 1312 1312 1310 1310 1309 1309 1309 1309 1309 1309 1309 1307 1307 1305 1305 1305 1307 1307 1309 1309 1309 1309 1309 1307 1305 1305 1307 1305 1307 1307 1309 1310 1312 1314 1315 1317 1319 1320 1322 1324 1324 1324 1325 1325 1327 1329 1329 1330 1330 1330 1332 1332 1336 1337 1341 1341 1341 1341 1341 1341 1341 1341 1339 1337 1337 1337 1337 1337 1339 1339 1341 1343 1343 1346 1348 1348 1350 1350 1351 1351 1353 1353 1351 1351 1350 1350 1350 1350 1350 1348 1346 1346 1346 1344 1341 1339 1337 1336 1334 1330 1329 1325 1324 1324 1324 1325 1327 1329 1329 1330 1334 1337 1339 1339 1337 1339 1337 1339 1343 1343 1343 1343 1346 1348 1351 1351 1353 1353 1353 1355 1357 1357 1357 1359 1359 1359 1359 1359 1357 1357 1357 1353 1353 1351 1350 1350 1351 1350 1350 1350 1350 1350 1350 1350 1350 1351 1353 1355 1353 1353 1351 1353 1353 1351 1351 1350 1350 1350 1351 1351 1353 1353 1353 1353 1353 1351 1351 1353 1353 1355 1357 1357 1359 1359 1360 1362 1362 1364 1364 1364 1364 1364 1364 1362 1360 1357 1357 1351 1351 1350 1348 1346 1346 1346 1348 1350 1350 1351 1351 1353 1355 1357 1357 1357 1359 1357 1357 0 0 0 0 0 0 0 0 0 0 0 0 0 0 0 0 0 841 841 841 840 839 836 833 831 829 827 0 0 0 0 0 0 0 0 0 0 0 0 0 0 0 0 0 0 0 0 0 0 0 0 0 0 0 0 0 0 0 0 0 0 0 0 0 0 0 0 0 0 0 0 0 0 0 0 462 462 461 461 461 461 460 460 460 0 0 0 0 454 452 451 450 449 448 448 447 446 445 444 443 442 441 441 440 439 439 438 437 437 436 435 435 434 433 433 433 432 431 431 430 430 429 429 428 428 427 426 425 0 0 0 0 0 0 0 408 407 406 406 405 405 404 403 403 402 401 400 399 398 397 395 394 0 0 0 0 0 0 0 0 0 0 0 374 373 373 373 373 373 373 373 373 373 373 374 374 375 0 0 377 378 379 379 380 380 381 381 381 381 382 382 382 382 382 383 383 383 383 383 383 383 382 382 382 382 381 381 381 381 381 381 381 382 382 382 383 383 383 384 384 385 386 387 0 392 393 394 395 395 395 395 395 395 395 394 394 393 393 393 392 392 0 0 0 0 380 377 0 376 375 375 375 375 375 375 375 375 375 0 0 0 375 375 375 0 0 0 0 0 666 666 665 664 663 662 661 659 658 656 654 652 649 646 642 639 636 0 0 627 625 625 624 624 623
1247 1251 1255 1258 1259 1259 1261 1261 1261 1259 1261 1261 1258 1258 1256 1256 1255 1253 1253 1253 1253 1256 1256 1256 1258 1258 1259 1259 1259 1262 1262 1264 1264 1264 1265 1267 1267 1267 1267 1268 1268 1270 1270 1270 1268 1268 1268 1268 1268 1270 1270 1268 1268 1270 1268 1268 1268 1265 1265 1265 1264 1264 1264 1264 1264 1265 1265 1265 1267 1267 1268 1270 1272 1273 1275 1276 1279 1283 1284 1287 1287 1287 1289 1291 1291 1291 1289 1291 1291 1292 1295 1295 1299 1302 1304 1304 1307 1309 1312 1314 1315 1315 1317 1319 1317 1319 1319 1319 1319 1319 1319 1317 1317 1317 1315 1314 1310 1305 1302 1300 1299 1297 1295 1294 1292 1291 1291 1291 1289 1287 1286 1284 1286 1286 1286 1286 1287 1291 1292 1297 1299 1305 1309 1315 1319 1322 1320 1320 1320 1322 1320 1320 1317 1315 1315 1317 1317 1315 1315 1315 1314 1310 1309 1305 1302 1300 1299 1297 1297 1299 1299 1299 1299 1299 1299 1297 1295 1295 1295 1294 1295 1297 1297 1300 1305 1307 1310 1312 1314 1314 1315 1315 1315 1314 1312 1312 1310 1309 1307 1307 1307 1307 1307 1307 1307 1307 1305 1305 1304 1304 1302 1304 1304 1305 1307 1307 1307 1309 1307 1305 1305 1305 1305 1305 1307 1307 1309 1310 1312 1315 1314 1317 1319 1319 1322 1322 1324 1324 1324 1325 1325 1327 1327 1327 1327 1329 1330 1330 1332 1336 1337 1341 1341 1341 1341 1341 1341 1341 1339 1337 1337 1337 1337 1337 1339 1341 1343 1343 1344 1348 1348 1350 1350 1351 1351 1353 1353 1351 1350 1348 1346 1346 1344 1344 1344 1343 1343 1341 1341 1339 1337 1336 1332 1330 1329 1329 1327 1325 1324 1322 1324 1324 1325 1325 1327 1329 1330 1334 1334 1336 1336 1337 1336 1337 1341 1343 1343 1343 1346 1348 1353 1357 1357 1357 1357 1359 1360 1359 1359 1359 1360 1360 1360 1360 1359 1357 1357 1355 1353 1351 1350 1350 1350 1350 1350 1350 1350 1351 1351 1351 1351 1353 1355 1355 1355 1353 1353 1353 1353 1351 1351 1350 1350 1350 1350 1351 1351 1351 1351 1353 1353 1351 1351 1353 1353 1355 1357 1357 1359 1359 1359 1362 1362 1362 1364 1364 1362 1362 1362 1360 1359 1355 1353 1350 1348 1348 1346 1344 1343 1343 1343 1344 1344 1346 1346 1348 1348 1350 1351 1351 1351 1350 1351 0 0 0 0 0 0 0 0 0 0 0 0 0 0 0 0 0 837 839 838 836 835 832 829 827 826 824 0 0 0 0 0 0 0 0 0 0 0 0 0 0 0 0 0 0 0 0 0 0 0 0 0 0 0 0 0 0 0 0 0 0 0 0 0 0 0 0 0 0 0 0 0 0 0 0 461 0 0 461 461 460 460 459 0 0 0 0 0 0 452 451 450 449 449 448 447 447 446 445 444 443 442 441 440 439 439 438 437 437 436 435 435 434 433 433 433 432 431 431 430 430 429 428 428 427 426 426 0 0 0 0 0 0 0 0 0 407 406 406 405 404 404 403 402 402 401 400 400 398 397 0 394 392 0 387 0 0 0 0 0 0 0 376 375 374 374 373 373 373 373 373 373 373 373 373 374 374 0 375 376 377 379 379 0 0 0 381 0 381 381 382 382 383 383 383 383 383 383 383 383 383 383 383 382 382 382 382 382 381 381 382 382 382 383 383 383 383 384 384 384 385 386 388 395 396 0 398 398 398 397 396 396 396 395 394 394 393 393 392 392 391 389 387 0 382 379 377 0 0 375 375 375 375 375 375 375 375 375 0 375 375 375 375 0 0 0 0 0 0 666 666 665 664 663 663 661 661 659 658 656 653 651 647 645 642 0 0 0 0 0 625 625 625 625
1247 1250 1255 1258 1259 1259 1261 1261 1261 1262 1261 1261 1258 1256 1255 1253 1253 1253 1253 1253 1253 1255 1256 1256 1258 1259 1259 1261 1262 1262 1262 1264 1264 1265 1265 1267 1267 1267 1267 1268 1267 1267 1267 1267 1267 1265 1265 1265 1265 1267 1267 1267 1267 1268 1268 1267 1265 1265 1265 1265 1265 1264 1264 1264 1264 1264 1267 1267 1267 1268 1270 1270 1272 1273 1275 1276 1279 1283 1284 1287 1287 1287 1289 1291 1291 1291 1289 1289 1291 1292 1294 1295 1300 1302 1304 1305 1307 1312 1314 1315 1317 1319 1317 1319 1317 1317 1317 1315 1315 1312 1312 1310 1309 1310 1309 1307 1304 1302 1300 1299 1297 1297 1295 1292 1291 1289 1289 1289 1287 1287 1286 1284 1284 1284 1284 1284 1284 1287 1291 1295 1297 1299 1302 1307 1310 1312 1310 1310 1310 1314 1312 1312 1312 1312 1312 1314 1314 1314 1314 1314 1310 1309 1307 1304 1302 1299 1297 1297 1295 1295 1295 1297 1299 1300 1299 1297 1297 1297 1297 1295 1297 1297 1299 1302 1305 1307 1309 1310 1310 1312 1314 1312 1310 1310 1309 1307 1305 1305 1304 1304 1304 1304 1304 1304 1304 1304 1304 1302 1302 1302 1302 1302 1302 1304 1305 1305 1307 1307 1307 1307 1305 1305 1307 1305 1305 1307 1309 1309 1312 1314 1315 1315 1317 1319 1320 1322 1322 1322 1324 1324 1325 1324 1325 1325 1327 1327 1329 1329 1332 1334 1337 1339 1339 1341 1341 1341 1341 1341 1339 1339 1339 1337 1337 1339 1339 1339 1343 1343 1343 1346 1348 1348 1350 1350 1351 1351 1351 1350 1348 1344 1344 1343 1341 1341 1339 1337 1337 1337 1337 1336 1332 1332 1330 1329 1329 1327 1327 1325 1325 1325 1327 1327 1327 1329 1329 1327 1330 1332 1334 1334 1334 1334 1334 1337 1339 1341 1341 1343 1346 1350 1355 1357 1359 1360 1359 1360 1360 1362 1362 1360 1360 1362 1362 1360 1360 1359 1357 1355 1353 1351 1350 1350 1350 1350 1350 1350 1350 1353 1353 1353 1353 1353 1357 1357 1357 1353 1353 1353 1351 1351 1350 1348 1348 1348 1348 1348 1350 1350 1350 1350 1351 1351 1351 1353 1353 1355 1357 1357 1359 1359 1359 1359 1360 1360 1360 1360 1360 1360 1359 1359 1357 1353 1353 1350 1350 1348 1346 1343 1341 1343 1339 1341 1341 1341 1339 1341 1341 1343 1344 1344 1343 0 0 0 0 0 0 0 0 0 0 0 0 0 0 0 0 0 0 0 831 832 831 831 829 828 825 823 822 821 0 0 0 0 0 0 0 0 0 0 0 0 0 0 0 0 0 0 0 0 0 0 0 0 0 0 0 0 0 0 0 0 0 0 0 0 0 0 0 0 0 0 0 0 0 0 0 0 0 0 0 0 460 460 0 0 0 0 0 0 0 0 452 451 450 450 449 449 448 447 446 445 444 443 442 441 440 440 439 438 437 437 436 435 435 434 433 433 433 432 431 431 430 430 429 428 427 426 425 425 0 0 0 0 0 0 0 0 408 407 406 406 405 404 404 403 403 402 401 400 400 398 396 395 0 0 389 0 0 0 0 0 379 378 0 0 375 375 374 374 374 374 373 373 373 373 373 373 373 373 0 374 375 376 0 378 0 0 0 0 0 0 381 382 382 383 383 384 384 384 384 384 384 384 383 383 383 383 383 382 382 382 382 382 382 383 383 383 383 384 384 384 385 386 387 397 0 401 401 401 401 400 399 398 397 396 395 394 393 393 392 392 391 390 0 0 0 381 379 377 376 375 375 375 374 374 374 374 374 374 375 375 375 375 375 375 375 0 0 0 0 0 665 665 664 664 663 662 661 661 660 659 657 654 652 650 647 645 0 0 0 0 0 626 626 625 625
1245 1250 1253 1256 1258 1259 1259 1259 1259 1259 1259 1258 1256 1255 1251 1251 1250 1250 1250 1250 1251 1253 1255 1256 1258 1259 1261 1261 1262 1262 1262 1264 1264 1264 1265 1265 1265 1265 1265 1265 1264 1265 1264 1264 1262 1262 1262 1262 1262 1262 1262 1264 1264 1264 1265 1264 1264 1265 1265 1265 1264 1264 1264 1264 1265 1265 1265 1265 1265 1265 1265 1267 1267 1268 1270 1273 1275 1279 1283 1286 1286 1287 1289 1289 1289 1289 1287 1287 1287 1291 1292 1294 1299 1300 1302 1304 1307 1309 1312 1314 1315 1315 1315 1315 1314 1314 1312 1310 1307 1305 1304 1302 1300 1302 1300 1300 1299 1297 1297 1295 1295 1294 1292 1291 1289 1287 1287 1286 1286 1284 1281 1281 1281 1281 1279 1281 1281 1284 1287 1289 1292 1295 1297 1299 1302 1302 1300 1302 1302 1304 1304 1307 1307 1307 1307 1310 1310 1310 1312 1310 1309 1307 1305 1300 1299 1297 1295 1294 1294 1294 1295 1295 1297 1299 1299 1299 1297 1297 1297 1297 1297 1299 1300 1302 1305 1305 1307 1309 1309 1309 1309 1309 1307 1305 1304 1304 1302 1300 1302 1300 1300 1300 1302 1302 1302 1302 1302 1302 1300 1300 1300 1300 1300 1302 1304 1304 1307 1307 1307 1307 1307 1307 1307 1305 1307 1307 1307 1309 1310 1312 1314 1315 1315 1319 1320 1320 1322 1322 1322 1322 1324 1322 1322 1322 1324 1324 1325 1325 1329 1330 1334 1337 1339 1339 1339 1341 1341 1341 1339 1339 1339 1337 1337 1339 1339 1341 1341 1341 1341 1344 1346 1346 1348 1348 1350 1348 1350 1348 1346 1343 1341 1339 1337 1337 1336 1336 1336 1336 1334 1332 1332 1330 1330 1329 1327 1327 1327 1327 1327 1327 1329 1329 1329 1329 1329 1329 1330 1332 1334 1334 1334 1334 1334 1337 1339 1341 1343 1344 1348 1353 1357 1359 1360 1360 1362 1362 1364 1364 1364 1362 1362 1362 1362 1362 1360 1359 1359 1355 1353 1351 1351 1351 1351 1351 1351 1351 1351 1355 1355 1353 1355 1355 1357 1357 1357 1355 1353 1353 1351 1351 1350 1348 1348 1346 1348 1348 1348 1348 1350 1348 1348 1350 1350 1350 1351 1353 1355 1357 1357 1357 1357 1359 1360 1360 1359 1359 1359 1359 1357 1357 1355 1355 1353 1351 1351 1348 1346 1344 1344 1343 1341 1341 1341 1339 1337 1337 1337 1337 1339 1337 1337 1337 0 0 0 0 0 0 0 0 0 0 0 0 0 0 0 0 0 0 0 825 825 825 824 822 821 819 819 818 0 0 0 0 0 0 0 0 0 0 0 0 0 0 0 0 0 0 0 0 0 0 0 0 0 0 0 0 0 0 0 0 0 0 0 0 0 0 0 0 0 0 0 0 0 0 0 0 461 460 460 460 460 459 459 0 0 0 0 0 0 0 453 452 451 451 450 450 449 448 447 446 445 443 442 441 440 439 438 437 437 436 436 435 435 434 433 433 433 432 431 431 430 429 429 427 426 426 425 424 423 0 0 0 0 0 411 0 0 408 408 407 406 405 404 404 403 402 401 400 400 398 396 0 0 390 388 386 0 0 0 380 379 0 377 376 376 376 375 374 374 374 374 374 373 373 373 373 373 373 373 0 0 0 0 0 0 0 0 0 381 381 381 0 383 383 383 384 384 384 384 384 384 384 384 383 383 383 383 383 383 383 383 383 383 383 384 383 0 384 385 385 385 0 0 0 0 0 0 0 404 403 402 400 399 397 395 394 393 392 392 391 390 389 387 0 0 0 379 377 376 375 375 375 374 374 374 374 374 374 375 375 375 375 375 375 0 0 0 0 0 665 665 665 664 664 664 663 662 661 661 659 658 656 654 652 0 0 0 0 0 0 0 628 627 0 625
1245 1248 1253 1256 1258 1258 1259 1259 1258 1258 1258 1256 1255 1253 1250 1248 1248 1248 1248 1250 1250 1251 1255 1256 1258 1261 1261 1261 1262 1262 1264 1265 1265 1264 1265 1265 1265 1265 1264 1262 1264 1262 1262 1261 1261 1261 1261 1261 1259 1261 1261 1262 1262 1262 1264 1262 1264 1264 1264 1264 1264 1264 1264 1262 1265 1265 1265 1265 1264 1264 1264 1264 1265 1265 1267 1267 1272 1276 1279 1281 1283 1286 1287 1287 1287 1287 1286 1286 1287 1287 1289 1291 1297 1299 1300 1300 1304 1305 1307 1309 1309 1310 1309 1309 1307 1307 1305 1302 1300 1297 1295 1294 1294 1294 1294 1294 1292 1292 1294 1292 1292 1291 1289 1286 1284 1284 1283 1283 1281 1279 1278 1278 1278 1278 1278 1279 1279 1283 1284 1287 1289 1291 1292 1294 1295 1297 1297 1295 1297 1299 1300 1302 1305 1305 1309 1309 1310 1310 1312 1309 1309 1307 1304 1300 1297 1295 1294 1294 1294 1294 1295 1295 1297 1299 1299 1299 1299 1299 1299 1299 1299 1300 1302 1302 1305 1307 1305 1305 1307 1307 1307 1305 1305 1302 1300 1300 1299 1299 1297 1299 1299 1299 1300 1300 1302 1302 1302 1302 1300 1300 1299 1299 1300 1302 1304 1305 1307 1309 1307 1309 1309 1309 1309 1309 1309 1309 1309 1310 1312 1314 1314 1314 1315 1319 1319 1320 1320 1320 1320 1322 1322 1322 1320 1320 1322 1322 1322 1322 1325 1327 1330 1334 1337 1337 1339 1339 1339 1339 1337 1337 1339 1337 1337 1339 1339 1339 1341 1341 1341 1341 1341 1344 1343 1343 1344 1344 1343 1343 1341 1339 1337 1336 1336 1336 1334 1334 1336 1336 1336 1334 1334 1332 1330 1330 1329 1329 1329 1329 1329 1329 1329 1330 1330 1330 1330 1330 1330 1332 1334 1334 1334 1336 1336 1337 1339 1343 1344 1346 1350 1357 1360 1362 1364 1364 1364 1366 1366 1366 1364 1362 1362 1364 1362 1362 1362 1360 1359 1357 1355 1353 1353 1353 1353 1353 1353 1353 1355 1355 1357 1355 1353 1355 1357 1359 1357 1355 1353 1353 1351 1351 1350 1348 1346 1346 1348 1348 1348 1348 1348 1346 1348 1348 1348 1350 1351 1351 1353 1355 1357 1357 1357 1357 1357 1357 1355 1355 1357 1357 1357 1355 1353 1353 1353 1351 1351 1350 1348 1346 1346 1344 1343 1343 1339 1337 1336 1336 1336 1336 1336 1336 1336 1337 1337 0 0 0 0 0 0 0 0 0 0 0 0 0 0 0 0 0 0 0 823 823 822 822 821 817 817 0 0 0 0 0 0 0 0 0 0 0 0 0 0 0 0 0 0 0 0 0 0 0 0 0 0 0 0 0 0 0 0 0 0 0 0 0 0 0 0 0 0 0 0 0 0 0 0 460 460 460 459 459 459 458 458 458 457 457 456 0 454 454 453 453 452 452 451 451 450 449 448 446 445 444 442 441 440 439 438 437 436 436 435 435 434 434 433 433 432 432 431 431 430 429 428 427 426 0 0 0 0 421 419 0 416 414 412 412 0 0 0 408 407 406 405 404 403 402 401 400 400 398 0 0 0 389 387 384 383 382 381 380 0 0 378 377 377 376 376 375 375 375 374 374 374 373 373 373 373 373 0 0 0 0 0 0 0 0 0 0 0 0 0 0 0 0 0 384 384 384 384 384 384 384 384 384 384 383 383 384 383 383 383 384 0 0 384 384 384 384 385 0 0 0 0 0 410 409 407 406 405 404 0 401 400 397 395 394 393 392 391 391 389 0 0 0 0 0 378 377 376 376 375 375 374 374 374 374 374 0 374 375 375 375 375 375 0 0 0 0 0 0 0 664 664 664 664 663 663 662 661 660 659 0 0 0 0 0 0 0 0 0 0 0 0 627 626
1245 1248 1250 1253 1255 1256 1258 1258 1256 1256 1256 1255 1253 1250 1250 1248 1248 1247 1248 1248 1250 1251 1255 1256 1259 1259 1261 1261 1262 1264 1264 1264 1265 1265 1265 1265 1265 1264 1262 1262 1262 1261 1261 1259 1259 1259 1258 1258 1258 1258 1258 1259 1259 1259 1261 1261 1262 1262 1264 1264 1262 1262 1262 1262 1264 1264 1264 1264 1264 1262 1262 1261 1262 1262 1262 1264 1267 1272 1275 1278 1279 1283 1284 1284 1286 1286 1284 1284 1286 1286 1287 1289 1292 1294 1295 1297 1299 1300 1302 1304 1305 1304 1305 1304 1302 1300 1300 1297 1295 1292 1291 1287 1287 1289 1289 1289 1289 1289 1289 1289 1287 1286 1286 1283 1281 1281 1281 1278 1278 1278 1276 1276 1276 1275 1276 1276 1278 1279 1281 1284 1287 1289 1291 1292 1294 1294 1294 1294 1295 1299 1299 1302 1304 1307 1307 1309 1309 1309 1310 1309 1307 1305 1302 1299 1295 1295 1294 1294 1294 1294 1295 1295 1297 1300 1300 1300 1300 1300 1300 1300 1300 1302 1304 1304 1305 1305 1305 1305 1305 1305 1304 1304 1302 1299 1299 1297 1295 1295 1295 1297 1297 1299 1299 1299 1299 1300 1300 1300 1300 1299 1299 1299 1299 1300 1302 1304 1304 1305 1305 1305 1307 1307 1309 1309 1309 1309 1309 1310 1310 1312 1314 1315 1314 1317 1319 1319 1319 1320 1320 1320 1322 1320 1319 1319 1320 1320 1322 1322 1322 1325 1325 1330 1332 1334 1334 1336 1336 1336 1337 1337 1337 1337 1337 1339 1339 1339 1339 1339 1339 1339 1339 1339 1339 1339 1339 1339 1339 1339 0 1336 1332 1332 1334 1334 1334 1334 1336 1337 1337 1337 1336 1334 1332 1332 1332 1330 1330 1330 1329 1330 1330 1332 1332 1334 1332 1332 1334 1336 1337 1337 1336 1337 1337 1339 1343 1344 1348 1351 1357 1359 1362 1366 1368 1366 1368 1368 1366 1366 1366 1364 1364 1364 1364 1364 1362 1360 1359 1359 1355 1355 1355 1353 1353 1353 1355 1353 1353 1353 1355 1355 1353 1355 1355 1357 1355 1355 1353 1351 1351 1350 1350 1346 1346 1346 1346 1346 1346 1346 1346 1344 1344 1344 1344 1346 1346 1348 1351 1353 1353 1355 1355 1355 1355 1353 1353 1353 1355 1353 1353 1353 1353 1353 1353 1353 1353 1351 1350 1348 1346 1344 1344 1341 1339 1337 1336 1336 1334 1334 1334 1332 1332 1336 1336 1337 0 0 0 0 0 0 0 0 0 0 0 0 0 0 0 0 0 0 0 0 0 0 0 0 0 0 0 0 0 0 0 0 0 0 0 0 0 0 0 0 0 0 0 0 0 0 0 0 0 0 0 0 0 0 0 0 0 0 0 0 0 0 0 0 0 0 0 0 0 0 0 0 461 460 460 459 459 459 459 458 458 457 457 457 456 455 455 454 454 453 453 452 452 451 451 450 449 0 446 444 443 441 440 438 437 436 436 435 435 434 434 433 433 433 432 432 431 430 430 429 428 426 425 424 423 422 421 420 0 0 416 415 414 412 412 0 0 0 0 407 406 405 404 403 0 400 400 0 0 393 0 388 0 0 0 382 381 380 0 379 378 378 377 377 377 376 376 375 375 374 374 374 374 373 373 373 373 0 0 0 0 0 0 0 0 0 0 0 0 0 0 0 0 384 384 384 384 384 384 384 384 384 383 384 383 384 383 0 0 0 0 0 0 384 384 384 0 0 0 0 412 412 411 410 409 408 407 406 0 0 0 0 395 394 392 392 391 390 0 0 0 0 383 381 0 378 377 376 375 375 374 374 374 374 373 374 374 374 375 375 375 0 0 0 0 0 0 0 0 0 664 664 664 663 663 0 0 0 0 0 0 0 0 0 0 0 0 0 0 0 0 0 627
1244 1247 1250 1251 1253 1253 1253 1255 1255 1256 1256 1253 1251 1250 1248 1248 1247 1247 1248 1248 1250 1253 1255 1258 1259 1259 1262 1262 1262 1264 1264 1264 1264 1264 1265 1265 1265 1264 1264 1262 1261 1261 1259 1258 1258 1258 1256 1256 1255 1255 1255 1256 1256 1258 1258 1259 1259 1261 1262 1262 1262 1262 1262 1262 1264 1264 1264 1264 1262 1262 1261 1261 1261 1261 1261 1262 1264 1267 1272 1275 1278 1279 1281 1283 1283 1283 1283 1283 1281 1283 1283 1284 1289 1289 1291 1291 1292 1294 1295 1297 1299 1297 1299 1297 1295 1294 1294 1292 1289 1287 1286 1283 1283 1284 1284 1286 1286 1284 1286 1286 1284 1283 1283 1279 1278 1276 1276 1275 1275 1275 1273 1273 1273 1275 1273 1275 1275 1276 1279 1283 1284 1287 1289 1291 1292 1294 1294 1295 1297 1299 1302 1304 1304 1305 1305 1307 1307 1309 1307 1307 1307 1304 1302 1299 1295 1294 1294 1292 1292 1294 1295 1297 1300 1300 1300 1302 1304 1302 1302 1304 1304 1302 1304 1305 1305 1305 1304 1304 1304 1302 1302 1302 1299 1297 1295 1295 1295 1294 1294 1295 1297 1297 1299 1299 1299 1300 1300 1299 1299 1297 1297 1297 1297 1299 1299 1299 1300 1300 1302 1302 1304 1304 1305 1305 1307 1307 1309 1310 1312 1312 1314 1314 1315 1317 1317 1319 1319 1319 1319 1319 1320 1319 1317 1317 1317 1317 1319 1319 1320 1320 1322 1325 1329 1329 1330 1332 1332 1334 1334 1336 1334 1336 1336 1337 1337 1337 1337 1336 1336 1336 1336 1336 1337 1337 1337 1337 1337 1337 1336 1336 1332 1332 1332 1332 1334 1334 1336 1337 1339 1339 1339 1337 1336 1336 1336 1334 1334 1332 1334 1334 1336 1337 1339 1339 1337 1337 1339 1341 1341 1339 1339 1341 1343 1344 1348 1351 1353 1357 1360 1364 1366 1368 1369 1369 1368 1368 1368 1368 1366 1364 1364 1364 1364 1364 1364 1362 1360 1359 1357 1355 1355 1355 1355 1353 1353 1353 1353 1353 1353 1351 1351 1351 1353 1353 1353 1353 1351 1351 1351 1348 1348 1344 1344 1344 1344 1344 1343 1343 1344 1343 1343 1344 1344 1344 1344 1346 1348 1350 1351 1351 1351 1351 1351 1351 1351 1350 1351 1351 1351 1351 1351 1351 1353 1351 1351 1351 1350 1350 1348 1346 1344 1343 1339 1337 1336 1336 1334 1332 1332 1334 1334 1334 1336 1336 1337 1337 1341 0 0 0 0 0 0 0 0 0 0 0 0 0 0 0 0 0 0 0 0 0 0 0 0 0 0 0 0 0 0 0 0 0 0 0 0 0 0 0 0 0 0 0 0 0 0 0 0 0 0 0 0 0 0 0 0 0 0 0 0 0 0 0 0 0 0 0 0 0 0 0 0 460 460 459 459 458 458 457 457 457 456 456 455 455 454 454 453 453 453 452 451 450 449 0 446 444 0 440 439 438 437 436 436 435 435 434 434 433 433 433 432 431 431 430 429 428 427 426 425 423 423 422 421 420 419 417 416 415 414 414 413 0 0 0 408 0 406 405 404 403 0 0 0 397 0 0 0 0 0 0 0 382 381 381 0 379 379 379 378 378 377 377 376 376 375 375 375 374 374 374 373 373 373 0 0 0 0 0 0 0 0 0 0 0 0 0 0 0 0 0 384 384 384 384 384 384 384 384 384 384 384 384 0 0 0 0 0 0 0 0 0 0 0 0 0 0 413 412 412 411 410 409 408 407 0 0 0 0 0 393 392 392 391 390 389 387 386 384 382 381 379 378 377 0 0 375 374 373 373 373 373 373 373 374 374 375 0 0 0 0 0 0 0 0 0 664 664 663 663 663 0 0 0 0 0 0 0 0 0 0 0 0 0 0 0 0 0 0 0
1242 1244 1245 1248 1248 1251 1251 1251 1253 1253 1253 1251 1251 1250 1247 1247 1247 1247 1247 1250 1250 1253 1255 1258 1259 1261 1261 1262 1262 1264 1264 1264 1264 1264 1264 1264 1265 1264 1264 1262 1261 1261 1261 1258 1258 1256 1256 1255 1253 1255 1253 1253 1253 1255 1255 1256 1258 1259 1259 1261 1261 1261 1261 1261 1262 1262 1262 1262 1261 1261 1259 1259 1259 1259 1259 1259 1262 1265 1268 1272 1275 1276 1278 1279 1281 1281 1281 1279 1278 1278 1281 1281 1284 1284 1286 1286 1287 1287 1291 1291 1291 1291 1291 1289 1289 1287 1286 1284 1284 1283 1281 1279 1279 1281 1281 1281 1281 1283 1283 1283 1281 1279 1279 1276 1275 1275 1275 1273 1273 1272 1272 1272 1272 1272 1272 1273 1275 1278 1279 1283 1284 1286 1287 1291 1292 1294 1294 1295 1295 1299 1300 1302 1304 1304 1304 1305 1307 1307 1305 1305 1304 1304 1302 1299 1297 1295 1295 1295 1294 1295 1297 1299 1300 1302 1302 1304 1304 1305 1304 1304 1304 1305 1304 1304 1305 1302 1302 1302 1300 1300 1300 1299 1297 1297 1295 1295 1294 1294 1294 1295 1295 1297 1299 1300 1300 1300 1300 1299 1297 1295 1295 1295 1295 1295 1297 1297 1299 1299 1299 1300 1302 1302 1304 1304 1305 1305 1307 1309 1310 1310 1312 1314 1314 1315 1317 1317 1317 1319 1319 1319 1319 1319 1317 1317 1317 1317 1317 1317 1317 1319 1320 1324 1325 1327 1329 1330 1330 1332 1332 1332 1332 1334 1334 1334 1334 1334 1334 1334 1334 1332 1332 1334 1334 1336 1336 1336 1336 1337 1336 1336 1332 1334 1334 1334 1336 1336 1337 1339 1341 1341 1341 1339 1339 1341 1341 1339 1339 1339 1339 1339 1341 1343 1343 1343 1343 1343 1343 1343 1344 1343 1344 1346 1350 1351 1355 1359 1360 1364 1366 1369 1369 1371 1371 1373 1371 1369 1369 1369 1368 1366 1364 1364 1364 1362 1362 1360 1360 1357 1357 1355 1355 1355 1355 1355 1353 1351 1351 1350 1350 1348 1348 1346 1346 1348 1348 1348 1348 1348 1348 1346 1346 1344 1343 1343 1343 1343 1341 1339 1341 1341 1341 1341 1343 1343 1344 1344 1346 1346 1350 1350 1350 1350 1350 1350 1348 1348 1350 1350 1351 1350 1350 1350 1351 1351 1351 1353 1350 1350 1350 1348 1344 1343 1341 1337 1336 1334 1334 1332 1332 1332 1332 1334 1336 1337 1337 1339 1341 0 0 0 0 0 0 0 0 0 0 0 0 0 0 0 0 0 0 0 0 0 0 0 0 0 0 0 0 0 0 0 0 0 0 0 0 0 0 0 0 0 0 0 0 0 0 0 0 0 0 0 0 0 0 0 0 0 0 0 0 0 0 0 0 0 0 0 0 0 0 0 0 461 460 459 459 458 458 457 457 457 456 456 455 455 455 455 454 454 453 452 452 450 449 448 0 0 0 440 439 437 436 436 435 435 435 434 434 433 433 433 432 431 431 430 429 428 427 425 424 423 422 421 420 419 419 418 417 416 416 415 414 413 412 411 409 408 407 0 0 0 0 0 0 0 0 0 0 0 0 0 0 0 0 381 0 380 380 379 379 378 378 378 377 377 376 375 375 375 374 374 374 374 373 0 0 0 0 0 0 0 0 0 0 0 0 0 0 0 0 0 0 384 384 384 384 384 384 384 384 384 384 384 383 383 0 0 0 0 383 383 0 0 0 0 0 0 413 413 412 412 411 411 410 408 406 0 0 0 0 393 392 391 390 390 389 387 385 0 0 381 379 378 377 0 0 374 374 373 373 373 373 373 373 373 374 0 0 0 0 0 0 0 0 0 0 0 663 0 662 662 0 0 0 0 0 0 0 0 0 0 0 0 0 0 0 0 0 0 0
1241 1244 1244 1245 1247 1247 1248 1250 1251 1251 1251 1251 1250 1248 1247 1247 1247 1247 1247 1250 1251 1253 1256 1259 1259 1261 1261 1262 1262 1262 1262 1262 1264 1264 1264 1264 1264 1264 1262 1261 1261 1261 1259 1259 1258 1256 1255 1255 1253 1251 1251 1251 1251 1251 1253 1253 1255 1256 1258 1258 1258 1258 1258 1259 1261 1261 1261 1261 1261 1259 1258 1258 1258 1259 1258 1258 1259 1261 1264 1268 1270 1273 1273 1275 1276 1278 1276 1275 1275 1275 1275 1276 1279 1279 1281 1283 1283 1284 1284 1286 1286 1286 1286 1286 1284 1283 1281 1281 1279 1279 1278 1278 1278 1278 1278 1279 1279 1279 1279 1279 1278 1278 1276 1273 1270 1270 1270 1270 1272 1272 1270 1270 1272 1272 1272 1273 1273 1276 1279 1283 1284 1287 1289 1291 1292 1294 1294 1295 1297 1299 1300 1302 1302 1300 1302 1300 1302 1302 1302 1302 1300 1300 1300 1299 1297 1297 1295 1295 1295 1297 1297 1299 1300 1302 1302 1304 1305 1305 1305 1305 1305 1305 1304 1304 1304 1302 1300 1300 1300 1299 1299 1299 1297 1297 1295 1295 1295 1295 1295 1297 1299 1300 1302 1302 1302 1302 1302 1300 1299 1295 1295 1295 1294 1295 1295 1295 1297 1299 1299 1299 1300 1300 1304 1304 1305 1305 1307 1309 1310 1312 1312 1314 1314 1315 1317 1317 1317 1317 1319 1319 1319 1319 1317 1315 1315 1315 1315 1315 1315 1317 1319 1322 1322 1324 1325 1327 1329 1329 1330 1330 1332 1332 1334 1334 1334 1332 1332 1332 1332 1330 1330 1332 1332 1334 1336 1336 1336 1337 1337 1336 1336 1336 1337 1339 1339 1339 1341 1343 1344 1344 1344 1344 1344 1344 1346 1346 1346 1346 1348 1346 1348 1350 1350 1348 1348 1346 1346 1348 1348 1348 1348 1350 1355 1359 1360 1364 1368 1369 1371 1373 1373 1373 1375 1373 1371 1371 1369 1368 1366 1364 1362 1362 1362 1360 1360 1359 1357 1355 1355 1355 1353 1353 1353 1353 1351 1350 1348 1346 1346 1344 1341 1341 1343 1343 1344 1346 1346 1346 1346 1346 1346 1343 1343 1339 1339 1337 1337 1336 1336 1336 1337 1337 1337 1339 1341 1343 1343 1344 1346 1346 1346 1346 1348 1346 1346 1346 1346 1350 1350 1350 1348 1350 1351 1351 1353 1353 1351 1351 1350 1348 1346 1344 1341 1337 1337 1334 1332 1334 1332 1332 1334 1334 1336 1336 1337 1339 1341 0 0 0 0 0 0 0 0 0 0 0 0 0 0 0 0 0 0 0 0 0 0 0 0 0 0 0 0 0 0 0 0 0 0 0 0 0 0 0 0 0 0 0 0 0 0 0 0 0 0 0 0 0 0 0 0 0 0 0 0 0 0 0 0 0 0 0 0 0 464 0 462 461 461 460 459 459 458 457 457 457 457 456 456 455 455 455 454 454 453 453 452 450 449 0 446 0 442 440 438 437 436 435 435 435 434 434 434 433 433 433 432 431 431 430 429 428 426 425 424 423 422 421 420 419 418 418 417 417 417 416 415 414 413 412 411 409 0 0 0 0 0 0 0 0 0 0 0 0 0 0 0 0 0 0 381 0 381 380 380 379 379 378 378 377 376 376 376 375 375 374 374 374 374 0 373 373 372 0 371 0 370 0 0 0 0 0 0 0 0 0 0 384 384 384 384 383 383 383 383 384 384 384 384 383 383 383 383 383 0 0 0 0 0 0 0 0 0 413 413 412 0 411 410 409 407 404 401 398 395 393 0 391 390 390 388 387 385 384 382 0 380 378 0 0 375 374 373 373 372 372 372 372 373 373 0 0 0 0 0 0 0 0 0 0 0 661 661 661 0 661 0 0 0 0 0 0 0 0 0 0 0 0 0 0 0 0 0 0 0
1241 1242 1242 1244 1244 1244 1245 1247 1248 1250 1250 1250 1250 1248 1248 1248 1247 1247 1248 1250 1253 1255 1256 1259 1259 1261 1261 1261 1261 1261 1261 1261 1261 1262 1262 1262 1262 1262 1261 1261 1259 1259 1259 1259 1256 1255 1253 1251 1251 1250 1248 1248 1248 1248 1250 1251 1251 1253 1255 1256 1256 1256 1256 1256 1259 1259 1259 1259 1259 1258 1256 1256 1256 1256 1256 1256 1256 1259 1262 1264 1267 1268 1270 1272 1273 1273 1273 1273 1273 1273 1272 1273 1273 1275 1276 1276 1276 1278 1279 1281 1281 1281 1279 1279 1279 1278 1279 1278 1278 1276 1276 1275 1276 1276 1278 1278 1278 1278 1276 1276 1276 1276 1273 1272 1270 1270 1270 1268 1268 1270 1268 1268 1270 1270 1270 1272 1273 1276 1279 1283 1284 1287 1289 1292 1294 1295 1295 1297 1297 1299 1300 1299 1299 1297 1297 1297 1297 1297 1297 1297 1297 1299 1299 1297 1297 1297 1295 1297 1297 1297 1297 1300 1300 1302 1304 1304 1305 1305 1307 1307 1307 1305 1304 1302 1300 1299 1297 1297 1297 1297 1297 1297 1297 1297 1295 1295 1297 1297 1297 1299 1300 1302 1304 1304 1304 1302 1302 1302 1299 1297 1295 1295 1295 1295 1295 1297 1297 1300 1300 1300 1302 1302 1304 1304 1305 1307 1309 1310 1312 1312 1314 1315 1317 1315 1317 1317 1319 1319 1319 1320 1320 1320 1319 1319 1317 1317 1317 1317 1317 1319 1319 1322 1322 1324 1325 1327 1327 1329 1330 1330 1332 1332 1334 1334 1334 1334 1332 1332 1330 1330 1330 1332 1332 1334 1336 1336 1337 1339 1339 1339 1339 1339 1343 1343 1344 1344 1346 1350 1350 1351 1350 1351 1351 1353 1353 1353 1353 1355 1357 1357 1359 1357 1357 1355 1353 1353 1353 1353 1353 1353 1351 1357 1360 1364 1368 1371 1373 1375 1377 1378 1377 1377 1377 1377 1375 1371 1369 1369 1366 1364 1360 1360 1359 1357 1355 1353 1351 1351 1350 1350 1350 1350 1350 1350 1350 1346 1346 1344 1341 1339 1336 1336 1336 1336 1337 1341 1341 1341 1343 1344 1343 1341 1341 1339 1337 1336 1334 1332 1334 1332 1332 1334 1334 1334 1336 1337 1339 1339 1343 1343 1343 1343 1344 1343 1344 1343 1344 1346 1346 1346 1346 1350 1350 1351 1353 1353 1353 1351 1351 1350 1346 1344 1343 1337 1336 1336 1334 1332 1332 1334 1334 1334 1336 1337 1337 1339 1341 0 0 0 0 0 0 0 0 0 0 0 0 0 0 0 0 0 0 0 0 0 0 0 0 0 0 0 0 0 0 0 0 0 0 0 0 0 0 0 0 0 0 0 0 0 0 0 0 0 0 0 0 0 0 0 0 0 0 0 0 0 0 0 0 0 0 0 0 0 0 464 464 462 461 461 460 459 458 457 457 457 456 456 456 456 455 455 454 454 453 452 451 450 449 447 445 0 441 0 0 436 436 435 435 435 434 434 434 433 433 432 432 431 431 430 429 428 426 425 0 423 422 421 420 419 419 418 418 417 417 416 416 415 414 413 412 411 0 0 0 0 0 0 0 0 0 0 0 0 0 0 0 0 0 0 0 382 382 381 381 380 380 379 378 378 377 377 376 376 375 375 375 374 374 374 373 373 372 372 372 371 370 0 0 0 0 0 0 0 0 0 0 0 384 384 384 0 383 383 383 383 383 383 383 383 383 383 0 0 0 0 0 0 0 0 0 0 0 413 413 413 0 411 0 0 0 0 0 0 0 392 391 391 390 389 388 387 385 384 383 382 380 379 377 0 0 0 0 372 372 372 372 372 373 0 0 0 0 0 0 0 0 661 661 661 661 660 661 660 660 660 0 0 0 0 0 0 0 0 658 0 0 0 0 0 0 0 0 0 0
1242 1241 1242 1241 1242 1242 1242 1245 1245 1245 1247 1247 1248 1247 1247 1247 1247 1248 1250 1251 1253 1256 1258 1258 1258 1258 1259 1258 1258 1258 1258 1258 1259 1259 1261 1259 1259 1261 1259 1259 1259 1259 1258 1258 1255 1253 1251 1250 1250 1248 1247 1247 1247 1247 1248 1248 1250 1251 1251 1253 1253 1253 1256 1256 1258 1258 1258 1258 1258 1256 1255 1255 1255 1255 1255 1255 1255 1256 1259 1261 1264 1265 1268 1270 1270 1272 1272 1272 1272 1272 1272 1270 1272 1273 1272 1273 1272 1273 1273 1275 1275 1275 1275 1275 1275 1276 1276 1276 1276 1276 1276 1275 1275 1275 1275 1276 1276 1275 1275 1275 1273 1273 1272 1270 1270 1270 1268 1268 1268 1270 1268 1268 1270 1270 1270 1272 1272 1275 1278 1279 1283 1286 1289 1291 1292 1294 1295 1297 1297 1297 1297 1297 1295 1294 1292 1292 1292 1292 1294 1294 1294 1295 1295 1297 1297 1297 1297 1297 1297 1299 1300 1300 1302 1304 1305 1305 1307 1307 1307 1307 1305 1304 1302 1299 1297 1297 1295 1295 1295 1295 1297 1297 1297 1297 1297 1299 1299 1299 1300 1302 1304 1305 1309 1307 1307 1307 1305 1305 1302 1300 1299 1297 1297 1295 1299 1299 1300 1300 1300 1302 1302 1304 1304 1305 1307 1309 1309 1310 1312 1314 1315 1317 1317 1317 1319 1319 1319 1322 1324 1324 1324 1324 1322 1322 1320 1320 1320 1320 1320 1320 1320 1324 1324 1325 1325 1327 1327 1329 1330 1330 1332 1332 1334 1334 1334 1334 1332 1332 1330 1330 1330 1332 1332 1334 1336 1337 1339 1341 1343 1344 1344 1346 1348 1350 1350 1351 1355 1359 1359 1359 1359 1359 1360 1362 1364 1362 1362 1364 1366 1368 1368 1368 1364 1362 1360 1360 1359 1359 1359 1357 1357 1362 1366 1371 1373 1377 1378 1380 1382 1382 1380 1380 1378 1378 1375 1373 1371 1369 1366 1364 1360 1359 1355 1355 1351 1350 1350 1348 1346 1346 1348 1348 1346 1346 1344 1344 1341 1339 1337 1336 1334 1332 1330 1332 1332 1334 1336 1337 1339 1339 1339 1337 1337 1336 1336 1334 1332 1330 1330 1329 1329 1330 1330 1332 1332 1334 1336 1337 1337 1337 1337 1339 1341 1339 1339 1339 1341 1341 1343 1344 1344 1346 1348 1350 1351 1351 1351 1351 1350 1350 1346 1344 1341 1339 1336 1334 1334 1334 1332 1334 1334 1336 1336 1337 1339 1339 0 0 0 0 0 0 0 0 0 0 0 0 0 0 0 0 0 0 0 0 0 0 0 0 0 0 0 0 0 0 0 0 0 0 0 0 0 0 0 0 0 0 0 0 0 0 0 0 0 0 0 0 0 0 0 0 0 0 0 0 0 0 0 0 0 0 0 0 0 470 468 466 465 464 462 461 460 459 458 458 457 457 456 456 456 455 455 455 454 453 452 451 451 449 448 446 0 443 441 439 437 436 435 435 435 434 434 434 434 433 433 432 432 431 430 429 429 428 426 424 423 422 422 421 420 419 419 418 418 417 417 417 0 0 0 0 0 0 0 0 0 0 0 0 0 0 0 0 0 0 0 0 0 0 0 0 0 384 383 383 382 381 381 0 379 378 378 377 377 376 376 375 375 374 374 374 373 373 372 372 372 371 0 0 0 0 0 0 0 0 0 0 0 0 0 0 0 0 0 0 0 0 0 383 0 383 0 0 0 0 0 0 0 0 0 0 0 0 0 413 413 412 0 0 0 0 0 0 0 0 0 0 0 0 0 0 0 0 0 0 0 382 381 379 378 376 375 374 373 372 372 372 372 372 0 0 0 0 0 0 0 0 0 0 661 661 0 659 0 0 0 0 0 658 0 658 658 658 658 658 658 658 658 658 0 657 657 656 653 649 0
1241 1241 1241 1241 1239 1241 1241 1242 1244 1244 1245 1247 1248 1247 1248 1248 1250 1250 1251 1253 1255 1256 1258 1258 1256 1255 1255 1255 1255 1253 1251 1253 1255 1255 1256 1256 1256 1258 1258 1258 1258 1258 1258 1256 1253 1251 1251 1250 1248 1247 1247 1245 1245 1247 1247 1247 1248 1248 1250 1251 1251 1251 1253 1255 1255 1256 1258 1256 1256 1256 1255 1255 1253 1253 1253 1253 1255 1256 1258 1261 1262 1264 1267 1268 1268 1270 1270 1270 1270 1270 1270 1270 1270 1272 1270 1270 1270 1270 1270 1272 1272 1272 1273 1273 1273 1275 1275 1275 1275 1276 1275 1275 1275 1275 1275 1275 1275 1273 1273 1273 1272 1272 1272 1268 1268 1268 1268 1268 1267 1268 1268 1268 1270 1268 1270 1270 1273 1275 1276 1279 1281 1284 1286 1289 1291 1294 1294 1295 1295 1295 1295 1294 1292 1289 1289 1289 1289 1289 1289 1291 1291 1294 1294 1295 1295 1295 1295 1297 1299 1300 1300 1302 1304 1304 1305 1307 1307 1309 1309 1307 1305 1302 1299 1297 1295 1294 1292 1292 1292 1294 1294 1295 1297 1299 1299 1302 1302 1302 1304 1305 1309 1310 1312 1312 1312 1310 1312 1310 1307 1304 1302 1300 1300 1299 1300 1302 1302 1302 1304 1305 1305 1307 1307 1307 1309 1310 1310 1312 1314 1315 1317 1319 1319 1320 1322 1322 1322 1324 1325 1325 1325 1325 1325 1325 1325 1324 1324 1322 1322 1324 1324 1324 1325 1325 1327 1327 1329 1329 1329 1329 1330 1330 1332 1332 1332 1332 1330 1330 1330 1330 1330 1330 1332 1334 1336 1337 1341 1343 1344 1346 1348 1351 1351 1355 1357 1359 1362 1364 1366 1366 1366 1366 1368 1369 1369 1368 1368 1369 1369 1371 1373 1369 1368 1366 1364 1362 1362 1362 1362 1362 1362 1368 1371 1378 1378 1382 1384 1386 1388 1388 1386 1384 1382 1380 1377 1375 1371 1369 1366 1362 1359 1355 1355 1351 1350 1348 1346 1344 1344 1344 1343 1343 1343 1341 1341 1339 1336 1336 1332 1332 1329 1327 1327 1329 1329 1330 1332 1334 1336 1336 1336 1337 1336 1334 1336 1332 1332 1330 1329 1329 1329 1329 1329 1329 1332 1332 1332 1334 1336 1334 1336 1336 1337 1337 1336 1336 1337 1337 1339 1341 1341 1343 1346 1346 1350 1350 1350 1350 1348 1348 1346 1343 1341 1337 1336 1334 1334 1334 1332 1334 1336 1336 1337 1337 1339 1341 0 0 0 0 0 0 0 0 0 0 0 0 0 0 0 0 0 0 0 0 0 0 0 0 0 0 0 0 0 0 0 0 0 0 0 0 0 0 0 0 0 0 0 0 0 0 0 0 0 0 0 0 0 0 0 0 0 0 0 0 0 0 0 0 0 0 0 0 0 471 469 467 466 464 463 462 461 460 459 458 458 457 457 456 456 455 455 454 454 453 452 451 450 448 447 445 444 442 441 439 437 436 435 435 435 435 434 434 433 433 433 432 431 431 430 429 428 427 425 424 423 422 422 421 420 419 419 419 418 417 417 416 0 0 0 0 0 0 0 0 0 0 0 0 0 0 0 0 0 0 0 0 0 0 0 0 0 0 384 384 383 382 381 381 380 379 378 378 377 377 376 376 375 375 374 374 373 373 373 372 372 371 371 0 0 368 0 0 0 0 0 0 0 0 0 0 0 0 0 0 0 0 0 0 0 0 0 0 0 0 0 0 0 0 0 0 0 0 0 0 0 0 0 0 0 0 0 0 0 0 0 0 0 0 0 0 0 0 0 0 0 382 381 379 378 376 375 374 372 371 371 371 0 0 0 0 0 0 0 0 0 0 0 0 660 660 660 660 659 659 0 0 0 0 0 658 658 658 658 658 658 658 658 658 658 657 656 655 653 650 0
1241 1242 1242 1241 1239 1239 1239 1242 1242 1244 1245 1247 1248 1250 1250 1251 1253 1253 1255 1256 1256 1258 1258 1258 1253 1253 1253 1251 1250 1250 1250 1250 1250 1251 1253 1253 1253 1255 1255 1255 1256 1256 1256 1256 1253 1251 1250 1250 1248 1247 1247 1247 1245 1247 1247 1247 1247 1247 1248 1251 1251 1251 1251 1253 1255 1256 1256 1258 1256 1255 1256 1256 1255 1255 1255 1255 1256 1256 1259 1261 1262 1264 1265 1267 1268 1268 1270 1270 1270 1270 1270 1268 1270 1270 1268 1268 1268 1268 1268 1270 1270 1270 1270 1270 1272 1273 1275 1275 1276 1276 1275 1275 1275 1276 1276 1276 1275 1275 1273 1273 1272 1272 1272 1268 1268 1268 1268 1268 1267 1268 1268 1268 1270 1270 1272 1272 1273 1275 1276 1279 1281 1283 1286 1289 1291 1292 1294 1295 1294 1295 1294 1292 1289 1287 1286 1286 1286 1286 1287 1287 1289 1291 1292 1294 1294 1294 1295 1297 1299 1300 1302 1304 1304 1305 1307 1309 1309 1309 1309 1305 1302 1300 1297 1294 1292 1291 1291 1289 1289 1291 1292 1294 1297 1299 1300 1305 1307 1307 1309 1312 1315 1317 1317 1317 1317 1317 1315 1315 1310 1309 1304 1304 1302 1302 1304 1304 1304 1305 1305 1307 1307 1309 1309 1309 1310 1312 1314 1315 1315 1317 1319 1320 1320 1322 1322 1324 1325 1325 1327 1327 1327 1327 1327 1327 1327 1327 1327 1325 1324 1325 1325 1325 1325 1325 1327 1327 1329 1329 1327 1329 1329 1329 1330 1330 1330 1330 1330 1329 1329 1332 1332 1332 1334 1336 1339 1341 1343 1344 1346 1350 1351 1353 1355 1357 1360 1362 1368 1369 1369 1369 1369 1369 1371 1373 1371 1371 1369 1369 1373 1371 1373 1373 1371 1368 1368 1366 1366 1366 1366 1364 1366 1371 1377 1380 1384 1388 1390 1391 1391 1391 1388 1386 1384 1382 1378 1375 1373 1369 1364 1362 1359 1355 1353 1350 1348 1346 1343 1343 1343 1339 1339 1341 1339 1337 1337 1334 1332 1329 1327 1325 1324 1322 1322 1322 1322 0 0 0 0 0 0 1332 1332 1332 1332 1330 1329 1329 1329 1327 1327 1327 1327 1329 1329 1330 1330 1330 1332 1332 1332 1332 1332 1332 1332 1332 1332 1334 1334 1334 1336 1337 1341 1343 1344 1344 1344 1344 1344 1343 1343 1339 1337 1336 1334 1332 1332 1332 1330 0 0 0 1337 1339 1339 1341 1341 0 0 0 0 0 0 0 0 0 0 0 0 0 0 0 0 0 0 0 0 0 0 0 0 0 0 0 0 0 0 0 0 0 0 0 0 0 0 0 0 0 0 0 0 0 0 0 0 0 0 0 0 0 0 0 0 0 0 0 0 0 0 0 0 0 0 0 473 472 0 468 467 465 464 462 461 460 459 458 458 457 457 456 456 455 455 454 453 452 451 450 449 448 446 444 443 442 440 439 438 437 436 435 435 435 434 434 433 433 432 432 431 430 429 429 0 427 425 424 423 422 422 421 420 420 419 418 418 417 0 0 0 0 0 0 0 0 0 0 0 0 0 0 0 0 0 0 0 0 0 0 0 0 0 388 387 386 386 385 384 383 382 381 380 379 379 378 377 377 377 376 375 375 375 374 374 373 373 372 372 372 371 371 0 369 366 0 361 0 358 357 0 0 357 357 357 0 0 358 358 358 0 0 0 0 0 0 0 0 0 0 0 0 0 0 0 0 0 0 0 0 0 0 0 0 0 0 0 0 0 0 0 0 0 0 0 0 0 0 0 0 0 0 0 0 0 0 0 0 0 0 0 0 0 0 0 0 0 0 0 0 0 661 660 660 660 660 659 0 0 0 0 0 0 0 0 658 658 658 658 658 0 0 0 0 0 654 652 649 0
1242 1242 1242 1239 1239 1239 1239 1241 1242 1244 1245 1247 1250 1250 1251 1255 1253 1255 1255 1256 1258 1258 1256 1255 1251 1251 1250 1248 1248 1245 1245 1245 1247 1248 1250 1250 1251 1251 1253 1253 1255 1256 1256 1255 1253 1251 1251 1250 1248 1248 1247 1247 1247 1247 1247 1247 1247 1247 1247 1250 1250 1250 1250 1251 1253 1255 1256 1256 1256 1256 1256 1256 1258 1258 1258 1256 1256 1258 1259 1261 1262 1264 1264 1265 1267 1267 1268 1268 1268 1268 1268 1268 1268 1268 1268 1268 1268 1267 1268 1268 1268 1270 1270 1270 1270 1273 1273 1275 1275 1276 1276 1276 1275 1275 1275 1275 1275 1272 1272 1272 1272 1272 1270 1268 1268 1268 1268 1270 1270 1270 1270 1270 1272 1272 1272 1272 1273 1275 1275 1278 1281 1283 1284 1287 1291 1291 1292 1294 1294 1292 1291 1289 1286 1284 1283 1283 1284 1284 1284 1286 1287 1289 1291 1292 1292 1294 1295 1297 1299 1300 1302 1304 1305 1307 1307 1309 1309 1309 1305 1304 1300 1297 1292 1289 1287 1287 1286 1284 1286 1287 1289 1291 1294 1297 1302 1307 1309 1312 1314 1319 1320 1322 1324 1322 1322 1320 1320 1319 0 0 1307 1307 1305 1304 1305 1305 1305 1307 1309 1309 1309 1309 1312 1310 1312 1314 1314 1315 1317 1319 1320 1320 1322 1322 1324 1324 1327 1327 1327 1327 1327 1329 1329 1329 1327 1327 1327 1325 1325 1325 1325 1325 1325 1325 1327 1327 1327 1325 1325 1327 1325 1327 1327 1327 1327 1327 1327 1329 1330 1330 1332 1332 1334 1339 1339 1343 1344 1344 1346 1350 1351 1353 1357 1359 1360 1366 1369 1371 1371 1371 1371 1371 1371 1373 1373 1371 1371 1371 1373 1373 1373 1373 1373 1369 1369 1368 1368 1368 1368 1368 1368 1375 1380 1386 1390 1391 1393 1395 1395 1395 1391 1388 1386 1382 1378 1375 1371 1369 1364 1360 1357 1355 1350 1346 1344 1343 1343 1341 1339 1337 1337 1337 1336 1334 1332 1330 1327 1324 1320 1319 1317 1314 1314 1312 1314 0 0 0 0 1325 1327 1329 1332 1330 1330 1329 1329 1329 1329 1329 1327 1327 1327 1327 1327 1329 1330 1329 1330 1329 1330 1330 1329 1329 1329 1327 1329 1329 1329 1329 1330 1332 1334 1337 1339 1341 1341 1341 1341 1339 1339 1337 1336 1334 1330 1329 0 0 0 0 0 0 0 0 0 0 0 0 0 0 0 0 0 0 0 0 0 0 0 0 0 0 0 0 0 0 0 0 0 0 0 0 0 0 0 0 0 0 0 0 0 0 0 0 0 0 0 0 0 0 0 0 0 0 0 0 0 0 0 0 0 0 0 0 0 0 0 0 0 0 0 0 476 0 474 472 471 0 468 466 464 463 462 461 459 0 0 457 457 456 456 455 454 453 453 452 450 449 448 447 445 444 443 442 440 439 438 437 436 435 435 435 434 434 433 433 432 431 431 430 429 428 0 0 0 0 0 422 422 421 420 420 419 418 418 417 417 0 0 0 0 0 0 0 0 0 0 0 0 0 0 0 0 0 0 0 0 0 392 0 390 389 388 388 387 386 385 384 383 382 381 380 379 378 378 377 377 376 376 375 375 374 374 374 373 373 0 372 371 371 370 370 0 0 0 0 358 357 357 0 357 357 357 357 357 358 358 359 360 0 0 0 0 0 0 0 0 0 0 0 0 0 0 0 0 0 0 0 0 0 0 0 0 0 0 0 0 0 0 0 0 0 0 0 0 0 0 0 0 0 0 0 0 0 0 0 0 0 0 0 0 0 0 0 0 0 0 0 661 661 660 660 660 660 659 659 659 658 0 0 0 657 658 658 658 658 658 658 658 657 656 656 655 654 652 650 0
1242 1242 1242 1241 1239 1241 1241 1242 1244 1245 1247 1248 1250 1250 1251 1255 1255 1255 1255 1256 1256 1256 1255 1253 1250 1250 1248 1247 1245 1244 1242 1242 1244 1245 1247 1248 1248 1250 1251 1253 1253 1255 1255 1255 1253 1253 1251 1251 1250 1250 1248 1248 1248 1248 1248 1247 1247 1247 1247 1250 1250 1250 1250 1251 1253 1255 1256 1256 1258 1258 1259 1259 1259 1259 1259 1259 1261 1261 1261 1262 1264 1264 1265 1264 1265 1267 1267 1267 1267 1268 1268 1268 1268 1268 1268 1268 1268 1268 1268 1268 1268 1268 1270 1270 1272 1272 1275 1275 1275 1276 1276 1275 1275 1275 1275 1273 1272 1272 1270 1270 1270 1270 1270 1268 1268 1268 1268 1270 1270 1270 1270 1270 1272 1272 1272 1272 1273 1273 1276 1278 1279 1281 1283 1287 1287 1289 1289 1291 1291 1291 1287 1286 1284 1281 1281 1279 1281 1283 1283 1283 1284 1286 1289 1289 1292 1294 1294 1297 1297 1302 1304 1305 1307 1307 1307 1309 1309 1307 1307 1304 1297 1294 1291 1287 1283 1283 1281 1281 1283 1284 1286 1289 1294 1297 1302 1307 1312 1315 1319 1324 1325 1327 1327 1327 1325 1324 1322 1322 1315 1312 0 1309 1307 1305 1307 1307 1307 1307 1309 1310 1310 1312 1314 1314 1315 1314 1315 1317 1319 1320 1320 1322 1322 1324 1324 1325 1325 1327 1327 1327 1329 1329 1329 1329 1329 1329 1327 1327 1325 1327 1325 1325 1325 1325 1325 1325 1325 1325 1324 1322 1320 1322 1322 1324 1324 1324 1325 1327 1330 1330 1332 1332 1334 1339 1339 1341 1343 1346 1346 1350 1351 1353 1357 1359 1362 1366 1369 1369 1369 1369 1368 1368 1369 1369 1368 1366 1368 1368 1369 1369 1373 1373 1371 1369 1369 1369 1368 1369 1369 1369 1371 1377 1382 1388 1391 1393 1395 1397 1395 1395 1393 1390 1388 1384 1380 1375 1371 1368 1364 1360 1357 1351 1350 1346 1343 1341 1339 1339 1337 1337 1336 1334 1334 1332 1330 1327 1322 1320 1317 1315 1314 1312 1310 1309 1309 1310 1312 1314 1317 1320 1322 1325 1327 1327 1329 1329 1327 1327 1327 1327 1325 1325 1325 1325 1327 1327 1327 1327 1327 1327 1327 1327 1327 1325 1325 1324 1324 1325 1325 1325 1327 1327 1330 1332 1334 1336 1336 1337 1337 1337 1336 1334 1332 1329 1327 1324 0 0 0 0 0 0 0 0 0 0 0 0 0 0 0 0 0 0 0 0 0 0 0 0 0 0 0 0 0 0 0 0 0 0 0 0 0 0 0 0 0 0 0 0 0 0 0 0 0 0 0 0 0 0 0 0 0 0 0 0 0 0 0 0 0 0 0 0 0 0 0 0 0 0 0 0 476 475 474 473 471 470 0 467 465 464 462 461 0 0 0 0 0 456 456 454 454 453 452 451 450 449 448 446 445 443 442 441 440 439 438 437 436 436 435 435 434 434 433 432 432 431 430 429 429 428 427 426 425 424 0 422 422 421 420 420 419 418 417 417 416 0 0 0 0 0 0 0 0 0 0 0 0 0 0 0 0 0 0 0 0 393 0 392 391 390 389 388 388 387 386 385 384 383 382 380 380 379 378 378 377 377 376 376 375 375 375 374 374 373 373 373 0 0 0 371 368 0 363 0 359 358 358 357 358 358 358 358 358 358 359 360 361 362 0 0 0 0 0 0 0 0 0 0 0 0 0 0 0 0 0 0 0 0 0 0 0 0 0 0 0 0 0 0 0 0 0 0 0 0 0 0 0 0 0 0 0 0 608 610 0 0 0 0 0 0 0 0 0 0 0 0 661 661 661 661 660 659 658 659 658 658 657 0 657 657 657 658 657 658 658 657 657 657 656 655 655 653 651 650 0
1244 1244 1244 1242 1242 1242 1242 1242 1244 1245 1247 1248 1250 1251 1251 1255 1255 1255 1255 1255 1255 1253 1251 1248 1245 1244 1245 1244 1241 1241 1239 1239 1241 1242 1245 1247 1247 1248 1250 1251 1253 1255 1256 1256 1255 1253 1253 1253 1253 1251 1251 1251 1250 1250 1250 1248 1248 1248 1248 1250 1250 1250 1251 1251 1255 1256 1256 1258 1259 1259 1261 1262 1262 1262 1262 1262 1265 1265 1265 1265 1265 1265 1265 1267 1267 1267 1267 1267 1268 1268 1268 1268 1270 1270 1270 1272 1270 1270 1270 1270 1270 1270 1272 1272 1273 1273 1273 1275 1276 1276 1276 1275 1275 1275 1273 1272 1270 1270 1268 1268 1268 1268 1268 1268 1268 1268 1268 1268 1268 1270 1270 1270 1272 1272 1272 1273 1273 1273 1275 1276 1278 1281 1283 1284 1286 1287 1287 1289 1287 1287 1284 1283 1281 1279 1278 1278 1278 1278 1279 1281 1283 1284 1286 1289 1291 1292 1294 1295 1300 1302 1305 1307 1307 1309 1309 1310 1309 1307 1305 1300 1295 1292 1289 1284 1283 1281 1281 1279 1279 1283 1286 1289 1292 1295 1302 1307 1312 1315 1320 1325 1327 1329 1329 1329 1327 1325 1324 1322 1317 1314 1310 1309 1309 1309 1307 1309 1309 1310 1310 1312 1312 1312 1315 1317 1317 1317 1317 1320 1320 1322 1322 1324 1324 1325 1325 1327 1327 1327 1327 1329 1330 1330 1330 1330 1330 1330 1329 1329 1327 1327 1327 1327 1327 1325 1325 1325 1325 1324 1322 1320 1320 1320 1322 1322 1322 1324 1325 1329 1330 1332 1332 1334 1336 1337 1341 1343 1344 1344 1346 1350 1353 1355 1357 1359 1362 1364 1368 1368 1366 1366 1364 1364 1364 1364 1364 1362 1362 1364 1366 1366 1368 1369 1369 1368 1368 1368 1368 1368 1369 1369 1371 1377 1382 1386 1390 1393 1397 1395 1397 1397 1393 1391 1386 1384 1380 1375 1371 1368 1362 1359 1355 1351 1348 1346 1341 1339 1337 1337 1336 1334 1334 1332 1332 1330 1327 1324 1320 1317 1314 1314 1310 1307 1307 1307 1304 1305 1305 1309 1312 1314 1317 1320 1324 1325 1327 1327 1327 1325 1325 1325 1325 1325 1325 1325 1325 1327 1325 1324 1324 1325 1325 0 1324 0 0 1322 1320 1322 1320 1322 1322 1324 1327 1327 1330 1330 1332 1332 1332 1332 1330 1330 1329 1325 1322 1319 0 0 0 0 0 0 0 0 0 0 0 0 0 0 0 0 0 0 0 0 0 0 0 0 0 0 0 0 0 0 0 0 0 0 0 0 0 0 0 0 0 0 0 0 0 0 0 0 0 0 0 0 0 0 0 0 0 0 0 0 0 0 0 0 0 0 0 0 0 0 0 0 0 0 476 476 476 475 474 473 472 470 0 467 465 464 463 461 460 459 458 457 457 456 455 454 454 453 452 451 450 448 447 445 444 443 442 441 440 439 438 437 436 436 435 435 434 433 433 432 431 430 430 429 428 428 426 426 425 424 423 422 421 421 420 419 419 418 417 416 416 415 414 413 0 411 410 0 0 0 0 0 0 0 0 0 0 0 0 0 395 394 393 392 392 391 390 389 389 388 387 386 384 383 382 381 380 379 378 378 377 377 377 376 376 375 375 375 374 374 374 373 0 0 0 372 0 0 0 0 0 359 358 358 358 358 358 358 359 359 0 0 362 363 0 365 0 366 0 0 0 0 0 0 0 0 0 0 0 0 0 0 0 0 0 0 0 0 0 0 0 0 0 0 0 0 0 0 0 0 0 0 0 606 607 607 607 608 609 0 613 615 0 0 0 0 0 0 0 0 0 0 661 661 661 661 661 660 659 659 658 658 657 657 656 656 656 657 657 657 657 657 656 656 656 655 654 653 651 650 649
1247 1245 1245 1244 1244 1242 1242 1244 1244 1245 1247 1248 1250 1251 1253 1253 1255 1255 1255 1255 1253 1251 1250 1247 1242 1242 1241 1241 1239 1238 1238 1238 1239 1242 1244 1245 1245 1248 1250 1251 1253 1255 1256 1256 1255 1255 1255 1255 1255 1255 1255 1253 1253 1253 1251 1251 1250 1250 1250 1251 1251 1251 1253 1253 1256 1258 1258 1259 1259 1261 1264 1265 1265 1267 1267 1268 1270 1273 1272 1272 1273 1270 1270 1272 1270 1268 1268 1268 1268 1268 1268 1270 1270 1272 1272 1272 1272 1273 1273 1273 1272 1273 1273 1273 1272 1273 1273 1275 1275 1273 1273 1273 1272 1272 1270 1268 1268 1267 1267 1267 1267 1267 1267 1267 1268 1268 1268 1268 1268 1270 1270 1272 1272 1272 1272 1273 1273 1273 1273 1276 1276 1278 1279 1279 1283 1284 1284 1284 1284 1284 1283 1281 1278 1276 1275 1275 1276 1276 1278 1278 1279 1283 1284 1287 1289 1291 1294 1295 1300 1302 1307 1309 1309 1310 1310 1310 1309 1307 1302 1299 1295 1289 1287 1283 1279 1278 1278 1278 1278 1281 1284 1287 1291 1297 1300 1307 1310 1315 1320 1325 1327 1329 1330 1329 1327 1325 1324 1320 1317 1314 1310 1310 1309 1307 1309 1309 1310 1312 1312 1314 1314 1315 1317 1319 1319 1320 1320 1322 1324 1325 1325 1325 1325 1327 1327 1329 1329 1329 1329 1330 1330 1330 1330 1332 1332 1330 1330 1329 1329 1329 1329 1329 1327 1327 1327 1327 1327 1324 1322 1322 1320 1320 1322 1322 1322 1324 1325 1329 1330 1334 1334 1336 1337 1339 1343 1344 1344 1346 1350 1351 1353 1355 1357 1359 1360 1362 1364 1366 1362 1362 1360 1360 1360 1360 1359 1357 1359 1359 1360 1362 1364 1366 1364 1364 1364 1364 1364 1366 1368 1368 1371 1375 1380 1386 1390 1393 1393 1395 1395 1395 1393 1390 1388 1384 1378 1375 1371 1366 1362 1357 1353 1350 1346 1344 1341 1337 1336 1336 1334 1332 1332 1332 1330 1329 1327 1322 1317 1314 1312 1309 1309 1304 1304 1302 1300 1300 1300 1304 1305 1309 1312 1315 1319 1322 1324 1325 1325 1325 1325 1325 1325 1324 1324 1324 1324 1324 1324 1322 1322 1320 1322 0 0 0 0 1319 1319 1320 1319 1320 1320 1322 1324 1325 1325 1329 1329 1329 1329 1327 1325 1324 1322 1320 1315 1310 1305 1300 1295 0 0 0 0 0 0 0 0 0 0 0 0 0 0 0 0 0 0 0 0 0 0 0 0 0 0 0 0 0 0 0 0 0 0 0 0 0 0 0 0 0 0 0 0 0 0 0 0 0 0 0 0 0 0 0 0 0 0 0 0 0 0 0 0 0 0 0 0 0 0 0 476 476 475 475 474 473 0 471 469 467 466 465 463 461 460 459 458 457 456 456 455 454 454 453 452 450 449 448 446 445 443 442 442 441 440 439 438 437 437 436 435 435 434 433 432 431 431 430 429 428 428 427 426 425 424 423 423 422 421 420 420 419 418 417 416 416 415 414 413 412 412 411 410 409 0 0 0 0 0 0 0 0 0 0 0 396 395 394 393 393 392 392 391 390 389 388 387 386 385 384 383 381 380 380 379 378 378 377 377 377 376 376 376 375 375 374 374 374 374 373 373 372 0 369 0 0 0 0 360 359 359 359 359 359 359 360 360 0 0 363 364 0 365 366 0 0 0 0 0 0 0 0 0 0 0 0 0 0 0 0 0 0 0 0 0 0 0 0 0 0 0 0 0 0 0 0 0 0 605 606 607 607 608 608 609 611 0 615 0 0 0 0 0 0 0 0 0 0 0 0 0 0 0 0 660 659 658 0 0 656 656 656 656 656 656 656 656 656 656 656 655 654 653 652 651 649 648
1248 1248 1247 1245 1245 1245 1245 1245 1247 1247 1248 1250 1251 1253 1255 1255 1256 1256 1255 1255 1255 1253 1250 1247 1244 1242 1241 1241 1239 1239 1239 1238 1241 1244 1245 1247 1247 1248 1250 1251 1253 1255 1256 1256 1258 1258 1259 1259 1259 1259 1259 1256 1256 1256 1255 1255 1253 1253 1253 1253 1253 1253 1253 1253 1258 1259 1259 1261 1262 1262 1265 1267 1268 1270 1270 1272 1273 1276 1276 1276 1275 1275 1275 1273 1272 1270 1268 1268 1268 1268 1268 1270 1270 1272 1270 1272 1272 1272 1273 1272 1272 1272 1272 1272 1272 1272 1273 1273 1275 1272 1270 1270 1268 1267 1265 1265 1264 1264 1264 1265 1267 1267 1267 1268 1268 1268 1268 1268 1268 1270 1270 1270 1272 1272 1272 1272 1273 1273 1273 1275 1276 1276 1278 1278 1281 1281 1281 1283 1281 1281 1279 1279 1276 1275 1275 1273 1273 1273 1275 1275 1276 1281 1281 1284 1286 1289 1292 1295 1299 1302 1305 1307 1309 1309 1307 1309 1307 1304 1299 1295 1291 1287 1284 1281 1278 1278 1276 1276 1276 1279 1283 1284 1289 1294 1299 1304 1309 1314 1319 1322 1325 1327 1327 1327 1325 1324 1322 1319 1315 1314 1310 1310 1310 1309 1310 1310 1312 1314 1314 1314 1315 1315 1319 1320 1320 1322 1322 1324 1325 1327 1327 1327 1327 1327 1329 1329 1329 1329 1329 1330 1330 1330 1330 1332 1332 1330 1330 1330 1330 1330 1330 1330 1329 1329 1327 1327 1327 1324 1324 1322 1322 1322 1324 1324 1325 1325 1329 1330 1332 1334 1336 1337 1339 1341 1344 1346 1346 1348 1350 1351 1353 1353 1355 1357 1359 1360 1362 1364 1362 1359 1359 1357 1357 1357 1355 1353 1353 1355 1357 1359 1359 1360 1359 1359 1359 1360 1360 1362 1364 1366 1368 1373 1378 1382 1386 1388 1391 1391 1393 1393 1390 1390 1386 1382 1378 1375 1369 1366 1360 1357 1353 1350 1346 1344 1341 1339 1337 1336 1334 1334 1332 1330 1329 1327 1325 1320 1315 1312 1310 1309 1307 1305 1300 1300 1300 1299 1299 1302 1302 1305 1309 1312 1317 1319 1322 1325 1325 1325 1325 1325 1325 1324 1324 1324 1324 1322 1322 1320 1320 1320 1320 1319 0 0 1319 1317 1317 1319 1317 1319 1319 1320 1322 1322 1324 1325 1325 1325 1325 1324 1322 1320 1319 1314 1309 1304 1300 1295 1292 1287 1284 1284 1284 0 0 0 0 0 0 0 0 0 0 0 0 0 0 0 0 0 0 0 0 0 0 0 0 0 0 0 0 0 0 0 0 0 0 0 0 0 0 0 0 0 0 0 0 0 0 0 0 0 0 0 0 0 0 0 0 0 0 0 0 0 0 0 0 0 0 476 476 475 475 475 474 473 472 0 469 467 466 465 463 462 460 459 458 457 456 456 455 454 454 453 451 451 449 448 446 444 443 442 441 441 440 439 438 437 437 436 436 435 434 433 432 431 430 429 429 428 427 427 426 425 424 423 423 422 421 420 419 419 418 417 416 415 414 414 413 412 411 410 409 409 408 407 406 0 0 404 403 401 0 398 397 396 395 395 394 393 393 392 392 391 390 389 388 387 386 384 383 382 381 380 379 378 378 377 377 377 377 376 376 376 375 375 375 375 374 374 374 374 373 0 0 0 0 363 361 360 360 360 360 360 360 361 362 362 0 364 365 365 366 366 0 0 0 0 0 0 0 0 0 0 0 0 0 0 0 0 0 0 0 0 0 0 0 0 0 0 0 0 0 0 0 0 0 0 605 606 607 607 608 609 609 612 615 616 0 0 0 0 0 0 0 0 0 0 0 0 0 0 661 0 660 660 659 658 657 656 656 655 656 655 655 655 655 656 655 655 655 654 653 652 651 649 647
1250 1250 1248 1248 1247 1247 1247 1247 1248 1248 1248 1250 1251 1251 1255 1256 1256 1256 1256 1256 1255 1253 1253 1250 1247 1245 1244 1244 1242 1242 1241 1241 1242 1245 1247 1247 1248 1250 1251 1251 1255 1256 1258 1261 1261 1262 1264 1264 1264 1264 1264 1261 1261 1259 1258 1256 1256 1256 1256 1255 1255 1255 1255 1256 1259 1259 1261 1262 1262 1264 1267 1268 1270 1270 1272 1275 1276 1278 1278 1278 1278 1276 1275 1273 1272 1270 1268 1268 1268 1268 1268 1268 1270 1270 1272 1272 1272 1272 1272 1270 1268 1267 1267 1262 1261 1255 1255 1250 1250 1248 1247 1245 1245 1248 1248 1250 1255 1256 1261 1264 1265 1265 1267 1267 1267 1267 1267 1267 1267 1268 1268 1270 1270 1270 1272 1272 1272 1272 1273 1273 1273 1275 1275 1275 1276 1276 1278 1278 0 1278 1276 1276 1273 1273 1272 1272 1272 1273 1273 1273 1276 1278 1279 1283 1283 1286 1291 1294 1297 1300 1304 1305 1305 1305 1305 1305 1304 1302 1297 1294 1289 1286 1283 1279 1276 1275 1275 1275 1275 1278 1279 1284 1287 1291 1295 1302 1307 1312 1317 1322 1325 1327 1325 1325 1324 1324 1320 1319 1315 1312 1310 1310 1310 1309 1310 1310 1312 1314 1314 1315 1315 1315 1319 1320 1322 1322 1324 1325 1327 1327 1327 1327 1329 1327 1329 1329 1330 1329 1329 1329 1329 1330 1330 1330 1330 1330 1330 1330 1330 1330 1330 1330 1329 1329 1327 1327 1327 1324 1324 1324 1324 1324 1325 1325 1327 1327 1329 1330 1334 1334 1336 1339 1341 1344 1346 1348 1348 1348 1350 1351 1351 1351 1351 1353 1355 1359 1360 1360 1357 1357 1355 1353 1351 1350 1350 1346 1346 1348 1350 1350 1353 1353 1353 1353 1355 1355 1357 1359 1360 1364 1366 1369 1371 1375 1378 1382 1384 1384 1384 1386 1384 1384 1382 1378 1377 1371 1368 1364 1360 1357 1353 1350 1348 1344 1343 1341 1337 1337 1336 1334 1332 1329 1327 1325 1324 1320 1315 1312 1310 1309 1307 1304 1302 1302 1299 1299 1300 1302 1304 1305 1309 1312 1315 1319 1322 1325 1325 1325 1325 1325 1325 1324 1324 1324 1324 1322 1320 1320 1319 1320 1319 1319 1319 1317 1319 1317 1317 1319 1317 1319 1319 1319 1320 1320 1324 1324 1324 1324 1322 1320 1319 1317 1314 1312 1305 1300 1297 1294 1291 1287 1286 1286 1286 1287 1291 1294 1295 1297 0 0 0 0 0 0 0 0 0 0 0 0 0 0 0 0 0 0 0 0 0 0 0 0 0 0 0 0 0 0 0 0 0 0 0 0 0 0 0 0 0 0 0 0 0 0 0 0 0 0 0 0 0 0 0 0 0 0 0 0 0 476 476 475 475 474 474 473 472 470 469 468 466 465 463 462 460 459 458 457 456 455 455 454 453 452 451 450 449 447 445 444 443 442 441 440 440 439 438 437 436 436 435 435 433 433 432 431 430 429 429 428 427 426 426 425 425 424 423 422 421 420 419 418 417 416 415 415 414 413 412 411 410 410 409 408 407 407 406 405 404 403 402 401 0 398 397 396 395 395 394 394 393 393 392 392 391 390 389 388 386 385 384 382 381 380 379 379 378 378 378 377 377 377 376 376 376 376 375 375 375 375 374 374 374 372 0 0 0 365 363 362 0 0 361 362 362 362 363 364 365 365 366 366 367 367 0 0 0 0 0 0 0 0 0 0 0 0 0 0 0 0 0 0 0 0 0 0 0 0 0 0 0 0 0 0 0 0 0 0 0 0 607 607 608 609 609 613 615 0 0 627 633 639 647 0 0 0 0 0 661 661 661 662 662 661 661 660 659 659 657 656 656 655 654 654 654 654 654 655 655 654 654 653 653 652 651 649 648
1251 1250 1250 1248 1248 1248 1248 1248 1248 1248 1250 1251 1253 1253 1255 1256 1256 1256 1258 1258 1256 1256 1253 1251 1248 1248 1248 1247 1245 1245 1244 1242 1245 1247 1248 1248 1250 1251 1251 1253 1256 1258 1259 1262 1262 1264 1265 1265 1265 1265 1265 1264 1264 1261 1261 1259 1258 1258 1258 1258 1259 1259 1258 1259 1259 1261 1262 1264 1262 1265 1267 1268 1272 1272 1275 1275 1276 1279 1281 1279 1278 1279 1276 1275 1273 1272 1268 1268 1267 1267 1267 1267 1268 1268 1270 1270 1272 1272 1270 1268 1265 1262 1258 1250 1242 1239 1234 1228 1228 1225 1223 1222 1226 1231 1232 1238 1244 1245 1256 1259 1261 1262 1264 1264 1264 1264 1265 1265 1267 1267 1267 1268 1270 1270 1272 1272 1272 1273 1273 1273 1273 1273 1273 1273 1275 1273 1275 0 0 0 1273 1273 1273 1273 1270 1270 1270 1272 1273 1275 1276 1278 1279 1281 1284 1286 1289 1291 1295 1299 1302 1304 1304 1302 1302 1302 1300 1299 1294 1291 1286 1284 1281 1278 1276 1275 1273 1273 1273 1275 1278 1283 1286 1289 1294 1299 1304 1310 1315 1319 1322 1324 1324 1324 1324 1322 1319 1317 1314 1312 1310 1309 1309 1309 1310 1310 1312 1314 1314 1315 1315 1317 1320 1322 1324 1324 1325 1327 1329 1329 1330 1329 1329 1329 1330 1330 1330 1329 1329 1329 1329 1329 1329 1329 1329 1329 1329 1329 1329 1329 1329 1329 1329 1329 1329 1327 1327 1325 1325 1324 1324 1325 1327 1327 1327 1329 1329 1330 1332 1334 1337 1339 1341 1344 1346 1348 1346 1348 1348 1350 1350 1350 1350 1350 1353 1355 1355 1355 1353 1351 1350 1348 1346 1344 1343 1341 1339 1341 1341 1344 1344 1346 1348 1348 1350 1351 1353 1355 1357 1359 1360 1364 1366 1368 1371 1373 1375 1377 1377 1378 1378 1377 1375 1373 1371 1368 1364 1362 1359 1357 1353 1351 1350 1346 1344 1343 1339 1337 1336 1334 1332 1330 1330 1327 1324 1320 1317 1314 1312 1310 1309 1305 1304 1302 1299 1299 1300 1302 1304 1307 1309 1312 1315 1319 1322 1325 1325 1327 1325 1325 1325 1325 1325 1324 1324 1322 1322 1320 1320 1319 1320 1320 1319 1319 1320 1319 1319 1319 1319 1320 1320 1320 1322 1322 1322 1325 1325 1325 1324 1320 1319 1317 1314 1310 1305 1302 1297 1295 1292 1291 1289 1289 1291 1291 1294 1295 1297 1299 0 0 0 0 0 0 0 0 0 0 0 0 0 0 0 0 0 0 0 0 0 0 0 0 0 0 0 0 0 0 0 0 0 0 0 0 0 0 0 0 0 0 0 0 0 0 0 0 0 0 0 0 0 0 0 0 0 0 0 0 0 476 475 475 475 474 474 473 471 470 469 468 466 465 463 462 460 459 458 457 456 456 455 454 453 452 452 450 0 0 0 443 442 441 440 440 439 0 0 0 0 435 0 0 0 0 0 430 430 429 428 428 427 426 426 425 424 424 423 422 421 420 419 418 417 416 415 414 413 412 411 411 410 409 408 408 407 406 406 405 404 403 402 401 400 399 398 397 396 395 395 394 393 393 393 392 391 390 389 388 387 386 0 0 0 0 380 380 379 379 378 378 378 377 377 377 376 376 376 375 375 375 375 374 374 373 372 0 0 367 366 364 364 363 363 363 364 364 364 365 365 366 367 367 367 367 367 0 0 0 0 0 0 0 0 0 0 0 0 0 0 0 0 0 0 0 0 0 0 0 0 0 0 0 0 0 0 601 0 0 0 0 606 607 607 608 609 613 617 620 0 0 0 0 647 649 652 0 0 0 659 660 661 661 661 661 661 660 660 658 657 656 654 653 653 653 653 653 653 653 654 654 653 653 652 651 650 649 648
1250 1250 1250 1248 1248 1248 1248 1250 1248 1250 1251 1251 1253 1253 1256 1256 1256 1256 1258 1258 1258 1258 1256 1253 1253 1251 1253 1251 1250 1248 1247 1247 1248 1248 1250 1250 1250 1251 1253 1255 1256 1258 1259 1262 1264 1265 1267 1267 1267 1267 1267 1264 1264 1262 1261 1261 1259 1259 1259 1259 1259 1259 1259 1259 1259 1261 1262 1264 1262 1265 1267 1268 1272 1272 1275 1275 1278 1279 1281 1281 1279 1279 1278 1275 1273 1272 1268 1267 1267 1265 1265 1265 1265 1267 1267 1268 1270 1268 1267 1264 1261 1256 1250 0 0 0 0 0 0 0 0 0 1213 1215 1220 1226 1232 1238 1250 0 0 1261 1262 1262 1264 1264 1264 1264 1265 1265 1267 1267 1268 1268 1270 1270 1272 1272 1272 1273 1273 1272 1272 1272 1273 1272 1273 0 0 0 0 0 0 1272 1270 1272 1272 1272 1272 1275 1276 1279 1281 1283 1284 1287 1289 1291 1292 1297 1297 1300 1300 1299 1299 1300 1297 1295 1292 1287 1286 1283 1279 1278 1276 1273 1273 1272 1273 1275 1278 1279 1284 1287 1291 1297 1300 1307 1312 1315 1319 1320 1320 1322 1320 1320 1317 1315 1312 1312 1310 1310 1312 1312 1314 1315 1315 1317 1319 1320 1320 1322 1325 1324 1327 1325 1327 1329 1330 1330 1332 1332 1330 1330 1332 1332 1332 1330 1329 1329 1329 1329 1327 1327 1327 1327 1327 1325 1327 1327 1327 1327 1327 1329 1329 1329 1327 1325 1327 1327 1327 1327 1327 1329 1329 1329 1329 1332 1332 1336 1336 1337 1341 1344 1346 1348 1346 1346 1346 1348 1348 1348 1348 1348 1350 1350 1351 1350 1348 1346 1344 1343 1341 1337 1337 1336 1336 1336 1336 1339 1339 1341 1343 1344 1346 1348 1350 1351 1353 1355 1357 1359 1359 1362 1364 1366 1366 1368 1368 1368 1368 1368 1368 1364 1364 1360 1360 1359 1357 1357 1355 1353 1351 1350 1346 1343 1341 1339 1337 1336 1334 1330 1330 1329 1325 1320 1317 1315 1314 1310 1309 1307 1305 1302 1300 1300 1300 1302 1305 1307 1309 1312 1315 1319 1322 1325 1327 1325 1325 1325 1325 1325 1324 1324 1324 1322 1322 1320 1322 1320 1320 1320 1320 1320 1322 1320 1322 1322 1322 1322 1324 1325 1325 1325 1327 1327 1329 1329 1327 1324 1320 1319 1317 1314 1309 1305 1300 1297 1295 1294 1292 1292 1294 1294 1295 1297 1299 1302 0 0 0 0 0 0 0 0 0 0 0 0 0 0 0 0 0 0 0 0 0 0 0 0 0 0 0 0 0 0 0 0 0 0 0 0 0 0 0 0 0 0 0 0 0 0 0 0 0 0 0 0 0 0 0 0 0 0 0 0 0 475 475 474 474 474 473 472 471 470 469 0 0 465 463 462 460 459 458 457 456 455 455 454 453 452 452 451 0 0 0 0 441 440 440 439 438 0 0 0 0 0 0 0 0 0 0 430 429 429 428 428 427 426 426 425 425 424 423 422 421 420 419 417 416 415 414 413 412 412 411 410 409 408 408 407 407 406 406 405 404 403 403 401 0 399 398 397 396 395 395 394 394 393 393 392 391 390 389 388 387 387 0 0 0 0 0 0 380 379 379 378 378 378 377 377 377 376 376 376 375 375 375 374 374 374 373 372 371 0 368 367 366 365 365 365 365 365 366 366 367 367 367 367 367 367 368 0 0 0 0 0 0 0 0 0 0 0 0 0 0 378 379 379 379 379 379 0 0 0 0 0 0 0 0 0 597 598 599 600 0 0 0 607 607 609 610 615 619 623 0 0 0 0 648 649 0 0 0 0 657 658 659 660 660 660 660 659 658 657 656 655 653 652 652 652 651 652 652 653 653 653 653 653 652 651 650 649 648
1248 1248 1248 1248 1248 1248 1248 1250 1250 1250 1251 1253 1253 1255 1256 1256 1256 1258 1258 1258 1258 1258 1256 1255 1255 1255 1255 1255 1253 1251 1250 1250 1250 1251 1251 1250 1251 1253 1253 1255 1258 0 0 1262 1264 1265 1267 1267 1267 1267 1267 1267 1264 1262 1261 1261 1259 1259 1259 1259 1258 1258 1258 1258 1259 1259 1261 1262 1264 1265 1267 1268 1272 1272 1275 1275 1278 1279 1281 1281 1279 1279 1278 1275 1272 1270 1267 1265 1264 1262 1261 1261 1262 1262 1264 1265 1265 0 0 1261 1256 1250 0 1232 0 0 0 0 0 0 0 0 0 1209 1215 1219 1225 1232 0 0 0 0 1261 1262 1262 1262 1262 1262 1264 1264 1264 1265 1265 1267 1267 1268 1268 1268 1270 1270 1270 1272 1272 1270 1272 1272 1272 1272 1272 1272 0 0 0 0 0 0 0 0 0 0 0 0 1283 1284 1286 1286 1287 1289 1291 1294 1294 1295 1295 1295 1295 1295 1295 1292 1289 1287 1283 1281 1279 1278 1275 1273 1272 1272 1272 1275 1276 1279 1281 1284 1287 1292 1295 1300 0 0 1312 1315 1317 1319 1317 1317 1315 1314 1312 1312 1312 1315 1317 1320 1324 1325 1327 1329 1330 1330 1330 1329 1330 1330 1330 1330 1332 1332 1334 1334 1336 1334 1334 1334 1334 1334 1332 1330 1332 1330 1329 1329 1327 1327 1325 1325 1324 1324 1324 1325 1325 1325 1327 1327 1327 1327 1329 1327 1329 1329 1329 1329 1329 1329 1329 1329 1330 1330 1332 1334 1336 1337 1339 1343 1344 1346 1346 1344 1344 1346 1346 1344 1344 1344 1344 1346 1346 1346 1344 1341 1341 1337 1336 1334 1332 1330 1330 1330 1332 1334 1334 1336 1337 1339 1341 1343 1346 1348 1350 1351 1351 1353 1353 1355 1357 1357 1359 1359 1360 1360 1360 1360 1359 1359 1359 1357 1355 1355 1355 1355 1355 1353 1353 1351 1348 1346 1343 1341 1337 1336 1334 1330 1329 1327 1325 1324 1319 1317 1315 1312 1310 1309 1307 1305 1302 1302 1302 1304 1307 1309 1310 1312 1315 1319 1322 1325 1327 1325 1327 1327 1327 1325 1325 1325 1325 1324 1322 1322 1322 1322 1320 1322 1322 1324 1324 1324 1324 1324 1324 1329 1327 1327 1329 1329 1330 1330 1332 1332 1330 1327 1324 1322 1320 1317 1310 1307 1302 1300 1297 1297 1294 1295 1295 1297 1299 1299 1300 1302 1304 0 0 0 0 0 0 0 0 0 0 0 0 0 0 0 0 0 0 0 0 0 0 0 0 0 0 0 0 0 0 0 0 0 0 0 0 0 0 0 0 0 0 0 0 0 0 0 0 0 0 0 0 0 0 0 0 0 0 0 0 475 475 474 474 474 473 471 471 470 469 468 466 465 464 462 0 0 0 457 456 455 454 454 453 452 451 450 449 0 0 0 0 440 439 439 437 436 435 435 434 433 433 0 0 0 0 430 429 429 428 428 427 427 426 425 425 424 423 422 421 420 419 417 416 414 413 412 412 411 410 409 409 0 407 407 406 406 405 404 404 403 403 402 401 400 399 398 397 396 395 395 394 393 393 392 392 390 390 389 0 0 0 0 0 0 0 0 381 380 380 379 379 378 378 378 377 377 376 376 376 375 375 374 374 374 373 372 372 371 0 0 368 368 367 367 367 367 367 367 368 368 368 368 368 368 368 369 369 0 0 0 0 0 0 376 376 376 377 377 377 378 378 379 379 0 379 380 0 0 0 0 0 0 0 595 596 596 597 599 600 601 0 605 607 609 610 0 0 626 0 637 0 0 648 649 651 652 654 655 656 657 658 658 659 659 658 658 658 656 656 654 653 652 651 651 651 651 651 652 652 652 652 652 652 651 650 649 0
1245 1245 1245 1247 1247 1248 1248 1250 1250 1251 1253 1253 1255 1255 1256 1256 1259 1258 1259 1259 1258 1258 1258 1258 1258 1256 1256 1256 1255 1255 1251 1251 1251 1251 1251 1251 1253 1253 1253 1255 1256 1259 1261 1261 1264 1264 1264 1265 1265 1267 1265 1264 1262 1261 1259 1259 1258 1258 1258 1258 1256 1256 1256 1256 1258 1258 1258 1259 1261 1261 1264 1265 1267 1268 1270 1273 1273 1276 1278 1278 1278 1276 1273 1272 1268 1267 1262 1261 1259 1258 1256 1256 1256 1256 1258 1258 0 0 0 1255 1248 0 1236 1226 1215 0 0 1194 1191 1191 1191 1192 1198 1202 1209 1213 1220 1228 0 0 0 0 1261 1261 1261 1261 1262 1262 1262 1262 1264 1264 1265 1265 1267 1267 1268 1268 1270 1270 1272 1272 1272 1272 1272 1272 1272 1272 1272 1272 1272 1272 1272 1273 1273 1275 1275 1276 1276 1279 1281 1283 1284 1286 1286 1286 1287 1287 1287 1291 1291 1291 1291 1291 1291 1291 1291 1289 1286 1283 1281 1281 1278 1276 1275 1272 1272 1272 1272 1273 1276 1279 1279 1283 1284 1286 1291 1295 1300 1304 1307 1310 1312 1314 1314 1315 1315 1315 1317 1319 1320 1325 1329 1334 1337 1339 1343 1346 1344 1344 1341 1341 1339 1336 1336 1336 1336 1336 1337 1339 1339 1337 1337 1337 1337 1337 1336 1336 1334 1332 1330 1329 1327 1325 1324 1324 1322 1322 1322 1322 1322 1324 1324 1325 1327 1327 1327 1327 1329 1329 1329 1329 1329 1327 1327 1325 1327 1325 1327 1327 1329 1330 1334 1337 1341 1341 1343 1343 1344 1344 1344 1343 1341 1341 1341 1343 1343 1341 1339 1337 1334 1332 1330 1330 1327 1325 1325 1325 1325 1327 1329 1330 1332 1336 1337 1339 1343 1344 1346 1348 1350 1348 1348 1348 1348 1350 1351 1351 1351 1351 1351 1353 1353 1353 1351 1351 1351 1351 1351 1351 1351 1351 1350 1348 1346 1344 1341 1337 1336 1334 1330 1329 1327 1327 1325 1324 1320 1319 1317 1315 1314 1312 1310 1309 1307 1305 1307 1307 1307 1310 1312 1312 1315 1319 1322 1325 1327 1327 1327 1327 1325 1327 1327 1325 1324 1324 1324 1322 1322 1322 1324 1324 1324 1324 1325 1325 1327 1327 1327 1330 1329 1330 1330 1330 1332 1334 1332 1334 1330 1329 1327 1325 1322 1319 1314 1310 1307 1304 1300 1299 1299 1299 1299 1300 1300 1302 1304 1304 1304 1305 0 0 0 0 0 0 0 0 0 0 0 0 0 0 0 0 0 0 0 0 0 0 0 0 0 0 0 0 0 0 0 0 0 0 0 0 0 0 0 0 0 0 0 0 0 0 0 0 0 0 0 0 0 0 0 0 0 0 0 476 475 474 474 473 472 472 470 469 468 467 467 465 464 462 461 0 0 457 456 455 454 454 453 452 451 450 449 0 0 0 441 440 439 438 437 436 435 434 433 433 432 432 431 431 430 430 430 429 428 428 427 427 426 426 425 424 423 422 421 420 418 417 415 414 413 412 411 410 409 409 408 407 407 406 406 405 405 404 404 403 403 402 401 400 399 398 397 396 395 395 394 394 393 392 392 390 390 389 388 387 386 385 0 0 0 382 381 381 381 380 379 379 379 378 378 377 377 376 376 375 375 374 374 374 373 373 372 372 0 0 371 370 0 370 369 369 368 368 368 368 368 368 368 369 369 369 370 0 0 0 0 0 375 375 376 376 376 376 377 378 378 378 379 0 0 0 0 0 0 0 0 0 0 0 594 594 0 597 598 599 601 603 605 0 614 0 0 0 0 640 644 647 0 0 0 652 653 655 655 656 656 658 658 658 658 657 656 656 654 653 652 651 650 650 650 651 651 651 651 651 652 652 651 651 650 649 0
1242 1242 1244 1244 1245 1247 1248 1250 1250 1250 1251 1253 1255 1255 1256 1258 1258 1259 1259 1259 1259 1259 1259 1258 1258 1258 1256 1256 1256 1255 1253 1253 1251 1253 1253 1251 1251 1253 1253 1255 1256 1258 1258 1259 1261 1261 1262 1264 1264 1262 1264 1262 1261 1259 1258 1256 1256 1255 1255 1255 1253 1253 1253 1253 1253 1255 1255 1255 1256 1258 1259 1261 1262 1264 1267 1268 1272 1272 1272 1270 1270 1270 1267 1265 1262 1261 1258 1255 1253 1250 1250 1248 1250 1250 1250 1251 1251 1253 1251 1248 1242 0 1228 1218 1206 1198 1192 1187 1185 1183 1183 1185 1191 1196 1203 1209 1215 1223 0 0 0 0 1259 0 1261 1262 1262 1262 1262 1262 1264 1264 1264 1265 1265 1267 1268 1268 1270 1272 1272 1273 1273 1272 1273 1273 1273 1273 1273 1273 1273 1273 1275 1275 1276 0 1278 1279 0 0 0 1287 0 1287 1286 1286 1286 1286 1284 1287 1287 1287 1287 1286 1286 1287 1287 1287 1284 1281 1281 1279 1279 1276 1276 1275 1275 1273 1273 1275 1276 1278 1278 1278 1281 1281 1284 1287 1294 1299 1300 1305 1309 1310 1312 1315 1317 1319 1322 1325 1330 1336 1341 1348 1353 1355 1359 1357 1353 1353 1351 1346 1344 1343 1341 1339 1339 1341 1341 1343 1343 1343 1343 1343 1341 1341 1341 1337 1336 1334 1332 1330 1327 1325 1324 1322 1320 1319 1319 1320 1320 1320 1322 1324 1325 1327 1329 1329 1330 1330 1330 1329 1327 1325 1324 1322 1320 1319 1319 1317 1319 1320 1324 1329 1330 1334 1336 1336 1337 1339 1339 1339 1336 1334 1334 1336 1336 1336 1332 1330 1329 1327 1324 1322 1320 1319 1319 1319 1320 1322 1324 1325 1327 1330 1334 1336 1339 1341 1341 1343 1343 1344 1343 1343 1343 1344 1344 1346 1344 1346 1346 1346 1346 1346 1346 1348 1346 1348 1348 1350 1348 1348 1346 1344 1343 1339 1336 1334 1330 1330 1329 1325 1325 1324 1324 1322 1320 1320 1319 1317 1315 1315 1314 1312 1309 1309 1309 1310 1310 1312 1314 1315 1317 1320 1322 1325 1325 1327 1327 1327 1329 1329 1329 1329 1329 1327 1327 1327 1327 1325 1327 1327 1327 1327 1329 1329 1329 1329 1329 1332 1332 1332 1332 1332 1336 1336 1334 1336 1334 1330 1329 1325 1324 1320 1315 1312 1309 1307 1305 1302 1300 1302 1304 1304 1304 1305 1305 1305 0 0 0 0 0 0 0 0 0 0 0 0 0 0 0 0 0 0 0 0 0 0 0 0 0 0 0 0 0 0 0 0 0 0 0 0 0 0 0 0 0 0 0 0 0 0 0 0 0 0 0 0 0 0 0 0 0 0 0 0 0 0 476 474 474 473 472 471 470 469 468 467 467 466 464 463 461 460 459 457 456 455 454 453 453 452 451 450 449 0 445 443 442 441 439 438 437 436 435 434 433 433 432 431 431 431 430 430 430 429 428 428 427 427 426 426 425 424 423 422 421 420 418 417 415 414 413 412 410 410 409 408 408 407 406 406 405 405 405 404 404 403 403 402 401 400 400 398 398 397 396 395 394 394 393 392 391 390 390 389 388 387 386 386 385 384 383 383 382 382 381 381 380 380 379 379 378 377 377 377 376 375 375 375 374 374 373 373 373 372 372 0 371 371 370 0 370 369 369 369 368 369 369 369 369 369 369 370 371 0 0 0 374 375 375 375 375 376 376 376 377 377 378 378 379 379 0 0 0 0 0 0 0 0 0 0 594 594 595 596 0 598 599 601 603 0 0 0 0 0 0 642 645 647 648 649 0 651 653 653 654 654 656 656 657 657 657 656 656 655 654 653 651 651 650 650 650 650 650 651 651 651 651 651 651 650 649 648 0
1239 1241 1241 1242 1244 1245 1247 1250 1251 1251 1253 1255 1255 1256 1256 1258 1258 1259 1261 1261 1261 1261 1261 1261 1261 1261 1259 1259 1258 1258 1255 1255 1253 1253 1253 1253 1253 1253 1253 1255 1255 1256 1256 1258 1259 1259 1259 1261 1261 1261 1259 1259 1258 1256 1255 1253 1251 1251 1251 1251 1251 1250 1250 1250 1251 1251 1250 1248 1251 1251 1253 1255 1256 1259 1261 1262 1264 1264 1264 1262 1262 1261 1258 1256 1255 1251 1250 1248 1245 1244 1242 1242 1242 1242 1242 1244 1245 1244 1245 1239 1234 1228 1220 1210 1201 1192 1185 1180 1179 1177 1179 1180 1183 1189 1195 1202 1209 0 0 0 0 1256 1259 1261 1262 1262 1262 1262 1262 1262 1262 1264 1264 1265 1265 1267 0 0 0 1270 1272 1273 1273 1273 1272 1273 1273 1273 1273 1273 1273 1273 1276 1278 0 0 0 0 0 0 0 0 0 0 1287 1286 1284 1283 1281 1279 1279 1279 1279 1278 1279 1279 1279 1279 1279 0 0 0 0 0 0 0 0 0 0 0 0 1270 1272 1272 1275 1275 1278 1283 1287 1292 1295 1302 1304 1307 1310 1314 1317 1320 1325 1330 1337 1346 1351 0 1362 1368 1366 1364 1362 1359 1353 1350 1346 1343 1339 1339 1341 1341 1343 1344 1344 1344 1344 1344 1344 1343 1341 1339 1336 1334 1332 1329 1327 1325 1322 1320 1319 1317 1317 1317 1319 1319 1320 1322 1324 1325 1327 1327 1330 1329 1327 1327 1322 1320 1319 1315 1314 1310 1309 1307 1307 1309 1312 1317 1322 1324 1325 1327 1330 1332 1334 1334 1329 1329 1327 1329 1329 1329 1327 1325 1322 1320 1319 1319 1315 1314 1310 1312 1314 1315 1319 1320 1322 1327 1330 1334 1336 1336 1337 1339 1341 1339 1339 1339 1339 1339 1339 1339 1339 1339 1339 1341 1341 1341 1341 1341 1343 1343 1344 1344 1344 1346 1344 1341 1339 1336 1332 1330 1327 1327 1325 1324 1324 1324 1324 1324 1322 1320 1320 1319 1317 1317 1317 1314 1314 1312 1312 1314 1312 1314 1315 1315 1317 1320 1322 1325 1325 1327 1327 1329 1329 1329 1330 1330 1332 1330 1332 1332 1332 1334 1332 1332 1332 1332 1332 1332 1330 1330 1332 1334 1334 1334 1336 1336 1337 1337 1336 1337 1334 1332 1329 1327 1324 1320 1317 1314 1310 1309 1307 1305 1304 1304 1305 1307 1305 1309 1309 0 0 0 0 0 0 0 0 0 0 0 0 0 0 0 0 0 0 0 0 0 0 0 0 0 0 0 0 0 0 0 0 0 0 0 0 0 0 0 0 0 0 0 0 0 0 0 0 0 0 0 0 0 0 0 0 501 0 0 0 0 0 0 477 475 474 473 472 472 471 470 469 468 467 466 465 464 462 461 459 458 456 455 454 453 452 451 450 449 448 447 445 443 442 441 440 438 437 436 435 434 433 433 432 432 431 431 431 430 430 429 428 428 428 427 426 426 425 424 423 423 422 420 419 417 416 414 413 412 411 410 409 408 408 407 406 406 405 405 405 404 404 404 403 403 402 401 400 399 398 397 396 395 395 394 393 392 391 390 389 389 388 387 386 386 385 384 384 383 383 382 382 382 381 381 380 379 379 378 377 377 376 375 375 374 374 374 373 373 373 373 372 372 372 372 371 371 0 370 370 370 369 369 369 369 369 370 370 371 371 0 373 374 374 374 375 375 375 375 376 376 376 377 378 378 378 379 379 0 0 0 0 0 0 591 591 592 592 593 594 594 0 0 597 599 0 0 0 0 0 0 642 644 646 647 648 649 649 651 652 652 653 653 654 655 655 656 656 655 654 654 653 652 651 651 650 650 649 649 650 650 650 651 651 651 650 649 649 648 646
1236 1236 1238 1239 1242 1245 1247 1248 1251 1251 1253 1255 1255 1256 1258 1258 1259 1259 1261 1261 1261 1262 1262 1262 1262 1261 1261 1261 1259 1259 1256 1256 1255 1253 1253 1253 1253 1253 1253 1253 1253 1253 1255 1256 1256 1256 1258 1258 1258 1258 1256 1256 1255 1253 1251 1250 1248 1248 1247 1248 1247 1247 1245 1245 1245 1245 1245 1244 1244 1244 1245 1245 1247 1250 1250 1253 1253 1253 1250 1248 1250 1248 1247 1245 1242 1242 1241 1241 1238 1238 1236 1236 1236 1236 1236 1239 1239 1239 1238 1234 1228 1222 1216 1209 1199 1192 1189 1185 1181 1180 1179 1180 1184 1188 1194 1199 1205 1215 1228 0 0 1255 1259 1261 1262 1262 1262 1262 1262 1262 1262 1262 1264 1264 1265 1267 1267 0 1270 1270 1272 1273 1273 1273 1273 1273 1273 1273 1273 1273 1273 1275 1278 1281 1286 1289 1292 0 1295 1297 0 0 0 1291 1287 1284 1281 1279 1276 1275 1275 1273 1273 1272 1272 1272 1270 1270 0 0 0 0 0 0 0 0 0 0 0 0 0 1262 1264 1267 1268 1270 1273 1278 1284 1287 1292 1299 1302 1305 1307 1314 1317 1322 1329 1336 1341 1350 1357 1364 1369 1371 1371 1369 1366 1362 1357 1353 1348 1343 1339 1337 1339 1341 1343 1344 1344 1344 1344 1344 1344 1344 1343 1339 1337 1336 1332 1330 1327 1325 1322 1320 1319 1317 1317 1317 1317 1317 1319 1320 1322 1324 1325 1324 1325 1324 1324 1320 1317 1314 1310 1309 1307 1302 1299 1297 1297 1297 1300 1305 1309 1312 1314 1315 1319 1322 1325 1325 1324 1322 1320 1322 1322 1322 0 1319 1317 1314 1312 1312 1309 1307 1305 1307 1307 1310 1314 1315 1319 1322 1327 1330 1332 1334 1334 1336 1336 1336 1336 1336 1336 1336 1336 1336 1336 1336 1336 1336 1336 1336 1337 1339 1339 1341 1341 1341 1341 1341 1341 1339 1336 1332 1329 1325 1324 1324 1322 1322 1320 1322 1324 1324 1324 1322 1320 1320 1319 1319 1319 1319 1315 1315 1315 1315 1317 1317 1319 1317 1319 1320 1322 1324 1325 1327 1327 1329 1329 1332 1332 1332 1334 1334 1336 1337 1337 1339 1339 1339 1339 1339 1337 1337 1336 1334 1334 1336 1337 1337 1337 1337 1339 1339 1337 1339 1337 1334 1332 1330 1327 1324 1322 1319 1315 1314 1310 1309 1307 1307 1309 1310 1310 1310 1310 1312 0 0 0 0 0 0 0 0 0 0 0 0 0 0 0 0 0 0 0 0 0 0 0 0 0 0 0 0 0 0 0 0 0 0 0 0 0 0 0 0 0 0 0 0 0 0 0 0 0 0 0 0 502 0 501 500 499 0 0 0 0 481 478 475 474 473 473 472 471 470 470 468 468 467 466 465 463 462 460 458 456 454 454 452 451 450 450 449 448 447 445 444 442 441 440 439 438 436 435 434 433 433 432 432 431 431 431 430 430 429 428 428 427 427 426 426 425 424 424 423 422 421 419 418 416 414 413 412 411 410 409 408 407 407 406 406 405 405 405 404 404 404 403 403 402 401 400 400 399 398 397 396 395 394 393 392 391 390 389 388 388 387 386 386 385 385 384 384 383 383 383 383 382 382 381 380 379 379 378 377 376 376 375 375 374 374 374 374 373 373 373 373 373 372 372 371 0 371 370 370 370 370 370 370 370 370 370 0 372 0 373 374 374 374 375 375 375 375 376 376 376 377 377 378 378 379 379 0 0 0 0 0 0 589 590 591 591 591 592 594 594 0 0 597 598 603 0 0 0 640 0 647 647 648 649 649 649 651 651 652 652 652 653 654 654 654 654 653 653 653 651 651 650 649 649 649 649 649 649 649 649 650 649 650 649 649 648 647 646
1232 1234 1235 1238 1239 1244 1245 1248 1250 1251 1253 1253 1255 1255 1256 1256 1258 1258 1259 1259 1258 1258 1259 1259 1259 1259 1258 1258 1256 1256 1255 1253 1253 1251 1250 1250 1250 1250 1250 1251 1251 1253 1253 1253 1255 1255 1255 1255 1255 1253 1253 1251 1251 1250 1247 1245 1245 1245 1244 1244 1242 1242 1241 1241 1241 1241 1239 1238 1238 1238 1238 1238 1238 1239 1239 1241 1241 1241 1238 1238 1238 1238 1236 1236 1236 1234 1235 1234 1234 1232 1232 1232 1232 1232 1232 1234 1235 1235 1235 1231 1226 1220 1213 1208 1201 1195 1191 1187 1184 1183 1183 1183 1185 1191 1195 1201 1205 1218 1226 1239 1247 1255 1259 1261 1262 1262 1262 1264 1262 1262 1262 1262 1264 1264 1265 1267 1267 1268 1270 1272 1273 1275 1275 1275 1275 1275 1275 1276 1276 1275 1275 1275 1278 1281 1286 1289 1294 1295 1297 1299 1300 1299 1295 1292 1287 1284 1281 0 1275 1273 1272 1270 1270 1267 0 1267 1267 0 0 0 0 0 0 0 0 0 0 0 0 0 1256 1258 1261 1264 1264 1267 1270 1276 1281 1286 1289 1295 1300 1304 1307 1312 1317 1322 1327 1336 1343 1351 1359 1364 1369 1371 1369 1369 1366 1362 1359 1351 1348 1343 1339 1337 1339 1339 1341 1343 1344 1344 1344 1344 1344 1344 1343 1341 1337 1336 1332 1330 1327 1325 1322 1319 1317 1317 1315 1315 1315 1317 1319 1320 1322 1324 1322 1320 1320 1319 1315 1314 1309 1305 1302 1299 1297 1292 1289 1287 1286 1287 1289 1291 1295 1297 1300 1304 1305 1310 1314 1317 1314 1314 1314 1317 1319 1317 0 0 0 1310 0 1309 1305 1304 0 0 1304 1305 1309 1312 1315 1319 1324 1327 0 1330 1332 1332 1334 1332 1332 1332 1330 1330 1330 1330 1330 1330 1330 1330 1332 1332 1334 1336 1337 1339 1339 1339 1339 1337 1337 1334 1330 1329 1324 1324 1322 1319 1320 1320 1320 1320 1322 1324 1322 1322 1322 1320 1320 1320 1320 1319 1317 1317 1317 1317 1319 1319 1319 1319 1319 1320 1322 1324 1325 1325 1327 1329 1329 1332 1334 1334 1337 1339 1339 1343 1344 1344 1346 1346 1346 1344 1344 1343 1341 1339 1337 1339 1341 1341 1341 1341 1341 1341 1341 1341 1339 1337 1336 1334 1330 1329 1325 1324 1319 1317 1315 1312 1312 1312 1312 1312 1312 1312 1312 1312 0 0 0 0 0 0 0 0 0 0 0 0 0 0 0 0 0 0 0 0 0 0 0 0 0 0 0 0 0 0 0 0 0 0 0 0 0 0 0 0 0 0 0 0 0 0 0 0 0 0 0 502 502 501 500 499 499 497 494 490 487 482 479 476 474 474 473 472 472 471 470 469 468 468 467 466 464 463 461 459 456 454 453 452 451 450 449 449 448 447 445 444 443 442 440 439 438 437 435 435 434 433 433 432 432 431 431 430 430 429 428 428 427 427 426 425 425 424 424 423 422 421 420 418 0 415 413 412 411 410 409 408 408 407 407 406 406 405 405 405 404 404 404 403 403 402 401 400 400 398 397 396 395 394 393 392 391 390 389 388 387 387 386 386 385 385 385 385 384 384 384 384 383 383 382 0 380 379 378 378 377 376 376 375 375 374 374 374 374 374 374 373 373 373 372 372 372 372 372 371 371 371 371 371 371 371 371 372 0 0 374 374 374 374 374 375 375 375 375 375 376 377 377 378 378 378 0 0 0 0 0 0 0 589 589 590 590 591 591 592 593 0 0 596 598 603 0 0 0 640 646 647 647 648 649 649 649 650 651 651 651 651 651 652 652 652 652 651 651 651 651 650 649 649 649 648 648 648 648 648 649 648 649 648 648 647 646 645 644
1229 1231 1234 1235 1238 1241 1244 1247 1248 1250 1251 1253 1253 1255 1255 1255 1255 1253 1255 1255 1256 1256 1256 1256 1255 1255 1255 1255 1255 1253 1253 1251 1250 1248 1248 1247 1247 1247 1247 1247 1247 1248 1248 1248 1250 1250 1248 1248 1248 1248 1250 1247 1247 1245 1242 1241 1241 1241 1239 1239 1238 1238 1236 1236 1236 1235 1235 1232 1232 1232 1232 1231 1231 1231 1232 1232 1234 1231 1229 1229 1228 1228 1228 1228 1228 1226 1228 1231 1229 1229 1229 1229 1229 1229 1231 1231 1232 1232 1231 1229 1226 1220 1216 1209 1203 1201 1196 1194 1191 1188 1188 1188 1191 1194 1198 1205 1210 1219 1229 1236 1247 1253 1258 1261 1262 1262 1264 1264 1262 1262 1262 1262 1264 1264 1265 1267 1267 1268 1270 1272 1275 1276 1276 1276 1276 1278 1278 1278 1278 0 0 0 0 0 0 0 1300 1304 1305 1305 1305 1302 1299 1294 1289 1284 0 1278 1273 1272 1270 1268 1268 0 0 0 0 0 0 0 0 0 0 0 0 0 0 0 0 0 1253 1255 1258 1261 1262 1265 1268 1273 1278 1283 1287 1292 1297 1300 1304 1309 1315 1320 1327 1336 1341 1350 1357 1362 1369 1369 1369 1368 1364 1360 1353 1350 1344 1341 1337 1337 1337 1339 1341 1343 1343 1344 1344 1344 1344 1344 1343 1341 1337 1336 1332 1330 1327 1324 1322 1319 1317 1315 1315 1315 1315 1317 1317 1319 1320 1322 1319 1317 1315 1312 1310 1305 1300 1297 1292 1289 1287 1283 1279 1278 1276 1276 1276 1278 1281 1283 1286 0 0 1299 1305 1309 1309 1309 1310 1314 1315 1315 1315 1314 1310 1309 1307 1307 1305 1302 1300 1300 1300 1304 0 1309 1312 1315 1320 1325 1325 1329 1330 1330 1330 1330 1330 1330 1329 1329 1329 1329 1329 1329 1329 1329 1330 1330 1332 1334 1334 1336 1336 1337 1336 1336 1334 1332 1329 1325 1322 1320 1319 1319 1317 1317 1319 1320 1320 1322 1322 1322 1322 1322 1322 1320 1320 1320 1320 1319 1319 1319 1320 1320 1319 1319 1319 1319 1322 1324 1324 1325 1325 1327 1330 1334 1336 1337 1341 1343 1346 1348 1350 1350 1350 1350 1350 1348 1346 1344 1343 1341 1339 1343 1343 1343 1344 1343 1343 1341 1341 1341 1339 1337 1337 1334 1334 1330 1329 1329 1324 1322 1319 1315 1314 1315 1314 1314 1314 1314 1314 1312 1312 0 0 0 0 0 0 0 0 0 0 0 0 0 0 0 0 0 0 0 0 0 0 0 0 0 0 0 0 0 0 0 0 0 0 0 0 0 0 0 0 0 0 0 0 0 0 0 0 0 0 502 501 500 499 498 497 496 494 491 488 484 0 477 475 474 474 473 472 472 471 470 469 469 468 467 465 464 462 459 456 454 0 0 450 450 449 448 448 447 445 444 443 442 441 440 438 437 436 435 434 433 433 432 432 431 431 431 430 429 428 427 427 426 426 425 425 424 423 423 422 421 420 418 417 415 414 412 411 410 409 408 408 408 407 406 406 405 405 405 405 404 404 403 403 402 402 401 400 399 398 0 396 0 394 392 391 390 389 389 388 387 387 386 386 386 385 385 385 385 385 385 385 384 383 383 382 381 380 378 378 377 376 376 376 375 375 375 375 375 375 375 375 374 374 374 373 373 372 372 372 371 371 372 372 372 373 373 374 374 374 374 374 374 374 374 375 374 375 375 375 376 377 378 378 0 0 0 0 0 0 585 586 588 588 589 590 590 591 592 593 594 595 597 599 603 0 0 0 0 0 647 648 648 649 649 649 650 651 651 651 651 650 651 651 650 650 650 650 650 649 649 649 648 648 648 648 647 647 647 647 647 647 647 647 646 645 644 644
1228 1229 1231 1234 1236 1239 1242 1244 1247 1248 1250 1251 1251 1251 1251 1251 1251 1251 1253 1251 1253 1253 1253 1253 1253 1253 1253 1253 1251 1251 1250 1248 1247 1244 1244 1244 1242 1241 1241 1241 1242 1242 1242 1244 1244 1245 1244 1244 1244 1244 1244 1242 1241 1241 1238 1236 1236 1235 1235 1235 1234 0 0 0 0 1232 1229 1228 1228 1226 1226 1225 1225 1225 1225 1226 1226 1225 1222 1220 1220 1220 1220 1220 1220 1220 1222 1223 1225 1226 1225 1225 1226 1226 1228 1228 1229 1228 1228 1226 1223 1220 1216 1212 1208 1203 1202 1199 1198 1196 1195 1195 1196 1201 1205 1210 1215 1222 1229 1236 0 1253 1258 1261 1262 1262 1262 1262 1262 1262 1262 1262 1264 1264 1265 1267 1268 1270 1272 1273 1275 1276 1278 1278 1278 1279 1283 1283 1281 0 0 0 0 0 0 1307 1310 1312 1312 1310 1309 1305 1300 1295 1291 1284 1281 1278 1273 1270 1268 1267 1267 1265 1267 1265 1265 1267 0 0 0 0 0 0 0 0 0 0 0 1248 1251 1253 1258 1259 1261 1264 1267 1272 1276 1281 1286 1291 1295 1300 1304 1307 1314 1320 1327 1334 1341 1350 1357 1364 1368 1368 1369 1366 1366 1360 1355 1348 1343 1339 1336 1336 1336 1336 1337 1339 1343 1343 1343 1343 1343 1341 1341 1339 1336 1334 1332 1330 1327 1325 1322 1320 1317 1317 1315 1315 1315 1317 1319 1320 1320 1320 1317 1314 1310 1309 1304 1300 1294 1291 1287 1284 1281 1278 1273 1272 1268 1267 1267 1268 1272 1272 1275 1278 0 1289 1297 1304 1304 1307 1307 1312 1314 1314 1314 1312 1310 1307 1305 1305 1302 1300 1299 1299 1299 1300 1304 1305 1309 1312 1317 1322 1325 1325 1327 1329 1327 1327 1329 1329 1327 1327 1327 1327 1327 1327 1327 1327 1329 1329 1330 1330 1332 1334 1334 1334 1332 1332 1330 1327 1325 1322 1319 1317 1317 1315 1315 1315 1315 1317 1319 1319 1319 1319 1320 1320 1320 1320 1320 1320 1320 1320 1319 1319 1319 1320 1319 1319 1319 1319 1319 1320 1322 1322 1324 1325 1329 1330 1334 1337 1343 1344 1348 1350 1351 1353 1353 1353 1353 1351 1350 1348 1346 1344 1343 1344 1344 1346 1344 1344 1344 1343 1341 1343 1339 1337 1337 1336 1334 1330 1329 1329 1325 1322 1320 1317 1315 0 0 1315 1314 1314 1314 1314 1312 0 0 0 0 0 0 0 0 0 0 0 0 0 0 0 0 0 0 0 0 0 0 0 0 0 0 0 0 0 0 0 0 0 0 0 0 0 0 0 0 0 0 0 0 0 0 0 0 0 0 501 500 499 498 497 496 494 493 0 0 485 0 478 476 475 474 473 473 472 471 471 470 0 469 468 467 465 463 0 0 454 452 451 450 449 448 448 448 447 446 444 443 442 441 440 439 437 436 435 435 434 433 433 432 432 431 430 430 429 428 427 426 425 425 425 424 423 423 423 422 421 420 419 418 416 414 413 411 410 410 409 409 408 407 407 406 406 405 405 405 405 404 404 403 403 402 402 401 400 399 0 0 0 395 394 392 391 390 389 388 388 387 386 386 386 386 386 386 386 386 386 386 385 385 384 383 382 381 379 378 378 377 377 376 376 376 376 377 377 377 376 376 376 376 376 375 374 374 374 374 373 373 373 374 0 374 374 374 374 374 375 374 374 374 375 374 374 374 375 375 376 377 0 0 0 0 0 0 0 580 581 583 585 586 587 589 590 590 591 592 593 595 597 600 606 0 0 0 642 647 649 649 650 650 649 650 650 651 651 650 650 650 650 649 649 649 649 649 649 649 649 648 648 648 647 647 647 647 646 646 646 646 646 645 644 644 643 642
